17.051499843597412 1.3 -22.738
11.569499969482422 1.3089999996125699 -14.709
11.567499995231628 10.530999946594239 -14.721
9.897499978542328 10.532999801635743 -12.274
9.895500004291534 16.539999771118165 -12.281
17.048500061035156 16.529000091552735 -22.756
17.048699855804443 15.513733673095704 -22.7548
17.04890012741089 14.498466300964356 -22.753601
17.049099922180176 13.483199882507325 -22.752401
17.04930019378662 12.467932510375977 -22.7512
17.049499988555908 11.452666091918946 -22.75
17.049699783325195 10.437399673461915 -22.7488
17.04990005493164 9.422133255004884 -22.7476
17.050099849700928 8.406865882873536 -22.7464
17.050300121307373 7.391599464416504 -22.745201
17.05049991607666 6.3763330459594725 -22.744001
17.050699710845947 5.361066627502441 -22.742802
17.050899982452393 4.34580020904541 -22.7416
17.05109977722168 3.3305328369140623 -22.7404
17.051300048828125 2.315266418457031 -22.7392
17.051499843597412 1.3 -22.738
16.686033248901367 1.3006000000284985 -22.202734
16.320566654205322 1.301200000056997 -21.667467
15.955100059509277 1.3017999999690801 -21.1322
15.589632987976074 1.302400000113994 -20.596933
15.22416639328003 1.303000000026077 -20.061666
14.858699798583984 1.3035999999381602 -19.5264
14.49323320388794 1.3041999998502434 -18.991135
14.127766370773315 1.3048000002279878 -18.455868
13.76229977607727 1.305400000140071 -17.9206
13.396833181381226 1.306000000052154 -17.385334
13.031366348266602 1.3065999999642373 -16.850067
12.665899753570557 1.3071999998763204 -16.3148
12.300433158874512 1.3077999997884036 -15.779533
11.934966564178467 1.3083999997004867 -15.2442665
11.569499969482422 1.3089999996125699 -14.709
11.569366693496704 1.9238000392913819 -14.7098
11.569233298301697 2.5386000156402586 -14.7106
11.569100022315979 3.1533999919891356 -14.7114
11.568966627120972 3.7682002067565916 -14.712199
11.568833351135254 4.383000183105469 -14.712999
11.568699955940247 4.9978001594543455 -14.713799
11.568566679954529 5.6126001358032225 -14.7146
11.568433284759521 6.227400112152099 -14.7154
11.568300008773804 6.842200088500976 -14.7162
11.568166613578796 7.457000064849853 -14.717
11.568033337593079 8.071800041198731 -14.7178
11.567899942398071 8.686600017547608 -14.718599
11.567766666412354 9.301399993896485 -14.719399
11.567633271217346 9.91620044708252 -14.7202
11.567499995231628 10.530999946594239 -14.721
11.456166625022888 10.531133460998536 -14.557866
11.344833314418793 10.531266975402833 -14.394733
11.233500003814697 10.531399536132813 -14.2316
11.122166633605957 10.53153305053711 -14.068466
11.010833263397217 10.531666564941407 -13.9053335
10.899499952793121 10.531800079345704 -13.7422
10.788166642189026 10.53193359375 -13.579066
10.67683321237564 10.532066154479981 -13.415934
10.565499901771545 10.532199668884278 -13.2528
10.454166531562805 10.532333183288575 -13.089666
10.342833280563354 10.532466697692872 -12.926534
10.231499910354614 10.532600212097169 -12.7634
10.120166540145874 10.53273277282715 -12.600266
10.008833289146423 10.532866287231446 -12.437134
9.897499978542328 10.532999801635743 -12.274
9.897366642951965 10.933466720581055 -12.2744665
9.897233307361603 11.333933639526368 -12.274934
9.89709997177124 11.734399604797364 -12.2754
9.896966636180878 12.134866523742676 -12.2758665
9.896833300590515 12.535333442687989 -12.276334
9.896699965000153 12.935799407958985 -12.2768
9.89656662940979 13.336266326904298 -12.2772665
9.896433353424072 13.73673324584961 -12.277734
9.89630001783371 14.137200164794923 -12.2782
9.896166682243347 14.537667083740235 -12.2786665
9.896033346652985 14.938133049011231 -12.279134
9.895900011062622 15.338599967956544 -12.2796
9.89576667547226 15.73906593322754 -12.2800665
9.895633339881897 16.139532852172852 -12.280534
9.895500004291534 16.539999771118165 -12.281
10.372366696596146 16.53926639556885 -12.979334
10.849233388900757 16.538533020019532 -13.677667
11.326100051403046 16.537799644470216 -14.376
11.802966833114624 16.5370662689209 -15.074333
12.279833316802979 16.536332893371583 -15.772667
12.756700038909912 16.535599517822266 -16.471
13.233566522598267 16.53486614227295 -17.169334
13.71043348312378 16.53413372039795 -17.867668
14.187299966812134 16.533400344848634 -18.566
14.664166927337646 16.532666969299317 -19.264334
15.14103364944458 16.53193359375 -19.962667
15.617900371551514 16.531200218200684 -20.661
16.09476661682129 16.530466842651368 -21.359333
16.571633338928223 16.52973346710205 -22.057667
19.267499923706055 16.52999954223633 -22.156
19.27050018310547 1.3010000000474975 -22.138
17.051499843597412 1.3 -22.738
17.048500061035156 16.529000091552735 -22.756
19.267499923706055 16.52999954223633 -22.156
19.2677001953125 15.514733123779298 -22.1548
19.26789951324463 14.499466705322266 -22.1536
19.268099784851074 13.484199333190919 -22.152401
19.26830005645752 12.468932914733887 -22.1512
19.268500328063965 11.453666496276856 -22.15
19.268699645996094 10.438399124145509 -22.1488
19.26889991760254 9.423132705688477 -22.1476
19.269100189208984 8.407866287231446 -22.1464
19.26930046081543 7.392599868774414 -22.1452
19.26949977874756 6.377333450317383 -22.144001
19.269700050354004 5.362067031860351 -22.142801
19.26990032196045 4.346799659729004 -22.1416
19.270100593566895 3.3315332412719725 -22.1404
19.270299911499023 2.3162668228149412 -22.1392
19.27050018310547 1.3010000000474975 -22.138
19.122567176818848 1.3009333333582618 -22.178001
18.97463321685791 1.300866666669026 -22.218
18.82670021057129 1.300800000037998 -22.258001
18.67876625061035 1.3007333333487623 -22.298
18.53083324432373 1.3006666666595266 -22.338001
18.38290023803711 1.3006000000284985 -22.378
18.23496675491333 1.3005333333974705 -22.418001
18.08703327178955 1.300466666650027 -22.458
17.93909978866577 1.300400000018999 -22.498001
17.791166305541992 1.3003333333297633 -22.538
17.64323329925537 1.3002666666405276 -22.578001
17.495299816131592 1.3002000000094995 -22.618
17.347366333007812 1.3001333333202638 -22.658
17.19943332672119 1.3000666666892358 -22.698
17.051499843597412 1.3 -22.738
17.051300048828125 2.3152667760848997 -22.7392
17.05109977722168 3.3305335521697996 -22.7404
17.050899982452393 4.345799970626831 -22.7416
17.050699710845947 5.361067104339599 -22.742802
17.05049991607666 6.376333522796631 -22.744001
17.050300121307373 7.391599941253662 -22.745201
17.050099849700928 8.406866836547852 -22.7464
17.04990005493164 9.4221342086792 -22.7476
17.049699783325195 10.437400627136231 -22.7488
17.049499988555908 11.452667045593262 -22.75
17.04930019378662 12.467933464050294 -22.7512
17.049099922180176 13.483199882507325 -22.752401
17.04890012741089 14.498467254638673 -22.753601
17.048699855804443 15.513733673095704 -22.7548
17.048500061035156 16.529000091552735 -22.756
17.196433544158936 16.529066848754884 -22.716
17.344366550445557 16.529133605957032 -22.676
17.492300033569336 16.52920036315918 -22.636
17.640233516693115 16.529266166687012 -22.596
17.788166522979736 16.52933292388916 -22.556
17.936100006103516 16.52939968109131 -22.516
18.084033489227295 16.529466438293458 -22.476
18.231966972351074 16.529533195495606 -22.436
18.379899978637695 16.529599952697755 -22.396
18.527832984924316 16.529666709899903 -22.356
18.675766944885254 16.52973346710205 -22.316
18.823699951171875 16.529799270629884 -22.276001
18.971632957458496 16.529866027832032 -22.236
19.119566917419434 16.52993278503418 -22.196001
21.148500442504883 16.52999954223633 -22.107
21.15149974822998 1.302000000094995 -22.089
19.27050018310547 1.3010000000474975 -22.138
19.267499923706055 16.52999954223633 -22.156
21.148500442504883 16.52999954223633 -22.107
21.148700714111328 15.514799880981446 -22.1058
21.148900032043457 14.499599266052247 -22.1046
21.149100303649902 13.484399604797364 -22.103401
21.149300575256348 12.469198989868165 -22.1022
21.149499893188477 11.453999328613282 -22.101
21.149700164794922 10.4387996673584 -22.0998
21.149900436401367 9.423600006103516 -22.0986
21.150099754333496 8.408399391174317 -22.0974
21.15030002593994 7.393199729919433 -22.0962
21.150500297546387 6.377999114990234 -22.095001
21.150699615478516 5.362799453735351 -22.093801
21.15089988708496 4.347599792480469 -22.0926
21.151100158691406 3.3324001312255858 -22.0914
21.151299476623535 2.3171995162963865 -22.0902
21.15149974822998 1.302000000094995 -22.089
21.026100158691406 1.301933333463967 -22.092268
20.900699615478516 1.3018666667165235 -22.095533
20.77530002593994 1.3018000000854955 -22.0988
20.64989948272705 1.301733333338052 -22.102068
20.524499893188477 1.301666666707024 -22.105333
20.399100303649902 1.301600000075996 -22.1086
20.27369976043701 1.301533333444968 -22.111868
20.148300170898438 1.3014666666975245 -22.115133
20.022899627685547 1.3014000000664965 -22.1184
19.897500038146973 1.301333333319053 -22.121668
19.7721004486084 1.301266666688025 -22.124933
19.646699905395508 1.301200000056997 -22.1282
19.521300315856934 1.301133333425969 -22.131468
19.395899772644043 1.3010666667949409 -22.134733
19.27050018310547 1.3010000000474975 -22.138
19.270299911499023 2.3162667036056517 -22.1392
19.270100593566895 3.3315332412719725 -22.1404
19.26990032196045 4.346799898147583 -22.1416
19.269700050354004 5.362066555023193 -22.142801
19.26949977874756 6.377332973480224 -22.144001
19.26930046081543 7.392599868774414 -22.1452
19.269100189208984 8.407866287231446 -22.1464
19.26889991760254 9.423133659362794 -22.1476
19.268699645996094 10.438400077819825 -22.1488
19.268500328063965 11.453666496276856 -22.15
19.26830005645752 12.468932914733887 -22.1512
19.268099784851074 13.484200286865235 -22.152401
19.26789951324463 14.499466705322266 -22.1536
19.2677001953125 15.514733123779298 -22.1548
19.267499923706055 16.52999954223633 -22.156
19.39289951324463 16.52999954223633 -22.152733
19.51830005645752 16.52999954223633 -22.149467
19.643699645996094 16.52999954223633 -22.1462
19.769100189208984 16.52999954223633 -22.142933
19.89449977874756 16.52999954223633 -22.139668
20.01990032196045 16.52999954223633 -22.1364
20.145299911499023 16.52999954223633 -22.133133
20.270700454711914 16.52999954223633 -22.129868
20.39610004425049 16.52999954223633 -22.1266
20.52150058746338 16.52999954223633 -22.123333
20.646900177001953 16.52999954223633 -22.120068
20.772300720214844 16.52999954223633 -22.1168
20.897700309753418 16.52999954223633 -22.113533
21.023099899291992 16.52999954223633 -22.110268
22.897500038146973 16.52999954223633 -22.469
22.900500297546387 1.302000000094995 -22.451
21.15149974822998 1.302000000094995 -22.089
21.148500442504883 16.52999954223633 -22.107
22.897500038146973 16.52999954223633 -22.469
22.897700309753418 15.514799880981446 -22.4678
22.897899627685547 14.499599266052247 -22.4666
22.898099899291992 13.484399604797364 -22.4654
22.898300170898438 12.469198989868165 -22.4642
22.898500442504883 11.453999328613282 -22.463
22.89869976043701 10.4387996673584 -22.4618
22.898900032043457 9.423600006103516 -22.4606
22.899100303649902 8.408399391174317 -22.4594
22.899300575256348 7.393199729919433 -22.4582
22.899499893188477 6.377999114990234 -22.457
22.899700164794922 5.362799453735351 -22.455801
22.899900436401367 4.347599792480469 -22.4546
22.900100708007812 3.3324001312255858 -22.4534
22.90030002593994 2.3171995162963865 -22.4522
22.900500297546387 1.302000000094995 -22.451
22.783900260925293 1.302000000094995 -22.426867
22.6673002243042 1.302000000094995 -22.402733
22.550700187683105 1.302000000094995 -22.378601
22.43410015106201 1.302000000094995 -22.354467
22.317500114440918 1.302000000094995 -22.330334
22.200900077819824 1.302000000094995 -22.3062
22.08430004119873 1.302000000094995 -22.282066
21.967700004577637 1.302000000094995 -22.257935
21.851099967956543 1.302000000094995 -22.2338
21.73449993133545 1.302000000094995 -22.209667
21.617899894714355 1.302000000094995 -22.185534
21.50129985809326 1.302000000094995 -22.1614
21.384699821472168 1.302000000094995 -22.137268
21.268099784851074 1.302000000094995 -22.113134
21.15149974822998 1.302000000094995 -22.089
21.151299476623535 2.3171999931335447 -22.0902
21.151100158691406 3.3324001312255858 -22.0914
21.15089988708496 4.347600030899048 -22.0926
21.150699615478516 5.36279993057251 -22.093801
21.150500297546387 6.378000068664551 -22.095001
21.15030002593994 7.393199729919433 -22.0962
21.150099754333496 8.408399868011475 -22.0974
21.149900436401367 9.423600006103516 -22.0986
21.149700164794922 10.4387996673584 -22.0998
21.149499893188477 11.454000282287598 -22.101
21.149300575256348 12.469199943542481 -22.1022
21.149100303649902 13.484399604797364 -22.103401
21.148900032043457 14.499599266052247 -22.1046
21.148700714111328 15.514799880981446 -22.1058
21.148500442504883 16.52999954223633 -22.107
21.265100479125977 16.52999954223633 -22.131134
21.38170051574707 16.52999954223633 -22.155268
21.498300552368164 16.52999954223633 -22.1794
21.614900588989258 16.52999954223633 -22.203533
21.73150062561035 16.52999954223633 -22.227667
21.848100662231445 16.52999954223633 -22.2518
21.96470069885254 16.52999954223633 -22.275934
22.081300735473633 16.52999954223633 -22.300066
22.197900772094727 16.52999954223633 -22.3242
22.314499855041504 16.52999954223633 -22.348333
22.431099891662598 16.52999954223633 -22.372467
22.54769992828369 16.52999954223633 -22.3966
22.664299964904785 16.52999954223633 -22.420732
22.78090000152588 16.52999954223633 -22.444866
24.150500297546387 16.529000091552735 -23.112
24.153499603271484 1.3010000000474975 -23.094
22.900500297546387 1.302000000094995 -22.451
22.897500038146973 16.52999954223633 -22.469
24.150500297546387 16.529000091552735 -23.112
24.150700569152832 15.513800430297852 -23.1108
24.15089988708496 14.498599815368653 -23.1096
24.151100158691406 13.48340015411377 -23.1084
24.15130043029785 12.468199539184571 -23.107199
24.15149974822998 11.452999877929688 -23.105999
24.151700019836426 10.437800216674805 -23.1048
24.15190029144287 9.422600555419923 -23.1036
24.152099609375 8.407399940490723 -23.1024
24.152299880981445 7.39220027923584 -23.1012
24.15250015258789 6.3769996643066404 -23.1
24.15269947052002 5.361800003051758 -23.0988
24.152899742126465 4.346600341796875 -23.097599
24.15310001373291 3.331400680541992 -23.0964
24.15329933166504 2.316200065612793 -23.0952
24.153499603271484 1.3010000000474975 -23.094
24.069966316223145 1.3010666666785256 -23.051134
23.986433029174805 1.301133333425969 -23.008266
23.902899742126465 1.301200000056997 -22.9654
23.819366455078125 1.301266666688025 -22.922533
23.735833168029785 1.3013333334354684 -22.879667
23.652299880981445 1.3014000000664965 -22.8368
23.568766593933105 1.3014666666975245 -22.793934
23.485233306884766 1.301533333444968 -22.751066
23.401700019836426 1.301600000075996 -22.7082
23.318166732788086 1.301666666707024 -22.665333
23.234633445739746 1.3017333334544674 -22.622467
23.151100158691406 1.3018000000854955 -22.5796
23.067566871643066 1.3018666668329388 -22.536734
22.984033584594727 1.301933333463967 -22.493866
22.900500297546387 1.302000000094995 -22.451
22.90030002593994 2.3171999931335447 -22.4522
22.900100708007812 3.3324001312255858 -22.4534
22.899900436401367 4.347600030899048 -22.4546
22.899700164794922 5.36279993057251 -22.455801
22.899499893188477 6.378000068664551 -22.457
22.899300575256348 7.393199729919433 -22.4582
22.899100303649902 8.408399868011475 -22.4594
22.898900032043457 9.423600006103516 -22.4606
22.89869976043701 10.4387996673584 -22.4618
22.898500442504883 11.454000282287598 -22.463
22.898300170898438 12.469199943542481 -22.4642
22.898099899291992 13.484399604797364 -22.4654
22.897899627685547 14.499599266052247 -22.4666
22.897700309753418 15.514799880981446 -22.4678
22.897500038146973 16.52999954223633 -22.469
22.981033325195312 16.52993278503418 -22.511866
23.064566612243652 16.529866027832032 -22.554733
23.148099899291992 16.529799270629884 -22.597599
23.231633186340332 16.52973346710205 -22.640467
23.315166473388672 16.529666709899903 -22.683332
23.39869976043701 16.529599952697755 -22.7262
23.48223304748535 16.529533195495606 -22.769066
23.565767288208008 16.529466438293458 -22.811934
23.649300575256348 16.52939968109131 -22.8548
23.732833862304688 16.52933292388916 -22.897667
23.816367149353027 16.529266166687012 -22.940533
23.899900436401367 16.52920036315918 -22.9834
23.983433723449707 16.529133605957032 -23.026266
24.066967010498047 16.529066848754884 -23.069134
25.707500457763672 16.527999687194825 -24.276
25.71049976348877 1.3 -24.257
24.153499603271484 1.3010000000474975 -23.094
24.150500297546387 16.529000091552735 -23.112
25.707500457763672 16.527999687194825 -24.276
25.707700729370117 15.512800025939942 -24.274733
25.707900047302246 14.497599411010743 -24.273466
25.70810031890869 13.48239974975586 -24.2722
25.708300590515137 12.467200088500977 -24.270933
25.708499908447266 11.451999473571778 -24.269667
25.70870018005371 10.436799812316895 -24.2684
25.708900451660156 9.421599197387696 -24.267134
25.709099769592285 8.406399536132813 -24.265865
25.70930004119873 7.3911998748779295 -24.264599
25.709500312805176 6.37599925994873 -24.263332
25.709699630737305 5.3607995986938475 -24.262066
25.70989990234375 4.345599937438965 -24.2608
25.710100173950195 3.330400276184082 -24.259533
25.710299491882324 2.3151996612548826 -24.258266
25.71049976348877 1.3 -24.257
25.60669994354248 1.3000666666746838 -24.179466
25.50290012359619 1.3001333333493676 -24.101933
25.399099349975586 1.3002000000094995 -24.0244
25.295299530029297 1.3002666666987353 -23.946867
25.191499710083008 1.3003333333588671 -23.869333
25.08769989013672 1.300400000018999 -23.7918
24.98390007019043 1.300466666679131 -23.714266
24.880099296569824 1.3005333333974705 -23.636734
24.776299476623535 1.3006000000284985 -23.5592
24.672499656677246 1.3006666667177342 -23.481667
24.568699836730957 1.30073333340697 -23.404133
24.464900016784668 1.300800000037998 -23.3266
24.361099243164062 1.3008666667272337 -23.249067
24.257299423217773 1.3009333333582618 -23.171534
24.153499603271484 1.3010000000474975 -23.094
24.15329933166504 2.316200065612793 -23.0952
24.15310001373291 3.3313999652862547 -23.0964
24.152899742126465 4.346599864959717 -23.097599
24.15269947052002 5.361800003051758 -23.0988
24.15250015258789 6.377000141143799 -23.1
24.152299880981445 7.3921998023986815 -23.1012
24.152099609375 8.407399940490723 -23.1024
24.15190029144287 9.422600555419923 -23.1036
24.151700019836426 10.437800216674805 -23.1048
24.15149974822998 11.453000831604005 -23.105999
24.15130043029785 12.468200492858887 -23.107199
24.151100158691406 13.48340015411377 -23.1084
24.15089988708496 14.498599815368653 -23.1096
24.150700569152832 15.513800430297852 -23.1108
24.150500297546387 16.529000091552735 -23.112
24.254300117492676 16.528933334350587 -23.1896
24.358099937438965 16.528866577148438 -23.267199
24.46190071105957 16.52879981994629 -23.344799
24.56570053100586 16.52873306274414 -23.4224
24.66950035095215 16.528666305541993 -23.5
24.773300170898438 16.528599548339844 -23.577599
24.877099990844727 16.528532791137696 -23.6552
24.980900764465332 16.528466987609864 -23.7328
25.08470058441162 16.528400230407716 -23.8104
25.18850040435791 16.528333473205567 -23.887999
25.2923002243042 16.52826671600342 -23.9656
25.39610004425049 16.52819995880127 -24.0432
25.499900817871094 16.528133201599122 -24.1208
25.603700637817383 16.528066444396973 -24.198399
28.196500778198242 16.53200035095215 -21.924
28.19849967956543 1.303000000026077 -21.906
25.71049976348877 1.3 -24.257
25.707500457763672 16.527999687194825 -24.276
28.196500778198242 16.53200035095215 -21.924
28.19663429260254 15.516733932495118 -21.9228
28.196767807006836 14.50146656036377 -21.9216
28.196901321411133 13.486200141906739 -21.9204
28.197032928466797 12.470932769775391 -21.919199
28.197166442871094 11.45566635131836 -21.918
28.19729995727539 10.440399932861329 -21.9168
28.197433471679688 9.425133514404298 -21.9156
28.197566986083984 8.40986614227295 -21.9144
28.19770050048828 7.394599723815918 -21.9132
28.197834014892578 6.3793333053588865 -21.912
28.197967529296875 5.364066886901855 -21.9108
28.19809913635254 4.348800468444824 -21.9096
28.198232650756836 3.3335330963134764 -21.9084
28.198366165161133 2.318266677856445 -21.9072
28.19849967956543 1.303000000026077 -21.906
28.03263282775879 1.3027999999001623 -22.062733
27.86676597595215 1.302600000007078 -22.219467
27.700899124145508 1.302400000113994 -22.3762
27.535032272338867 1.3021999999880791 -22.532934
27.36916732788086 1.3019999998621643 -22.689667
27.20330047607422 1.3017999999690801 -22.8464
27.037433624267578 1.3015999999595806 -23.003134
26.871566772460938 1.3013999999500812 -23.159866
26.705699920654297 1.3011999999405817 -23.3166
26.539833068847656 1.3009999999310822 -23.473333
26.373966217041016 1.300800000037998 -23.630066
26.208099365234375 1.3005999999120832 -23.7868
26.042232513427734 1.300400000018999 -23.943533
25.87636661529541 1.3001999998930842 -24.100267
25.71049976348877 1.3 -24.257
25.710299491882324 2.3152000188827513 -24.258266
25.710100173950195 3.3304000377655028 -24.259533
25.70989990234375 4.345599937438965 -24.2608
25.709699630737305 5.360800075531006 -24.262066
25.709500312805176 6.376000213623047 -24.263332
25.70930004119873 7.3911998748779295 -24.264599
25.709099769592285 8.406400012969971 -24.265865
25.708900451660156 9.421600151062012 -24.267134
25.70870018005371 10.436799812316895 -24.2684
25.708499908447266 11.452000427246094 -24.269667
25.708300590515137 12.467200088500977 -24.270933
25.70810031890869 13.48239974975586 -24.2722
25.707900047302246 14.497599411010743 -24.273466
25.707700729370117 15.512800025939942 -24.274733
25.707500457763672 16.527999687194825 -24.276
25.87343406677246 16.52826671600342 -24.1192
26.03936767578125 16.528532791137696 -23.962399
26.205300331115723 16.52879981994629 -23.8056
26.37123394012451 16.529066848754884 -23.6488
26.537166595458984 16.52933292388916 -23.491999
26.703100204467773 16.529599952697755 -23.3352
26.869033813476562 16.52986698150635 -23.1784
27.03496742248535 16.530133056640626 -23.021599
27.20090103149414 16.53040008544922 -22.8648
27.36683464050293 16.530667114257813 -22.708
27.53276824951172 16.53093318939209 -22.551199
27.698699951171875 16.531200218200684 -22.3944
27.864633560180664 16.531467247009278 -22.2376
28.030567169189453 16.531733322143555 -22.0808
30.89550018310547 16.537000465393067 -18.259
30.898500442504883 1.3080000003799797 -18.241
28.19849967956543 1.303000000026077 -21.906
28.196500778198242 16.53200035095215 -21.924
30.89550018310547 16.537000465393067 -18.259
30.895700454711914 15.521734046936036 -18.257801
30.89590072631836 14.506466674804688 -18.256601
30.896100997924805 13.491200256347657 -18.2554
30.896299362182617 12.475933837890626 -18.2542
30.896499633789062 11.460667419433594 -18.253
30.896699905395508 10.445401000976563 -18.2518
30.896900177001953 9.430133628845216 -18.2506
30.8971004486084 8.414866256713868 -18.2494
30.897300720214844 7.399599838256836 -18.2482
30.89750099182129 6.3843334197998045 -18.247
30.897701263427734 5.369067001342773 -18.2458
30.897899627685547 4.353800582885742 -18.2446
30.898099899291992 3.3385332107543944 -18.243399
30.898300170898438 2.323266792297363 -18.242199
30.898500442504883 1.3080000003799797 -18.241
30.7185001373291 1.3076666669920087 -18.485332
30.53849983215332 1.3073333336040378 -18.729666
30.35849952697754 1.3070000002160669 -18.973999
30.17850112915039 1.306666666828096 -19.218332
29.99850082397461 1.306333333440125 -19.462666
29.818500518798828 1.306000000052154 -19.706999
29.638500213623047 1.3056666666641832 -19.951332
29.458499908447266 1.3053333332762123 -20.195667
29.278499603271484 1.3049999998882413 -20.44
29.098499298095703 1.3046666665002704 -20.684334
28.918498992919922 1.3043333331122995 -20.928667
28.738500595092773 1.3040000001899898 -21.173
28.558500289916992 1.303666666802019 -21.417334
28.37849998474121 1.303333333414048 -21.661667
28.19849967956543 1.303000000026077 -21.906
28.198366165161133 2.3182667970657347 -21.9072
28.198232650756836 3.3335335731506346 -21.9084
28.19809913635254 4.348799991607666 -21.9096
28.197967529296875 5.364066886901855 -21.9108
28.197834014892578 6.3793333053588865 -21.912
28.19770050048828 7.394599723815918 -21.9132
28.197566986083984 8.409866619110108 -21.9144
28.197433471679688 9.425134468078614 -21.9156
28.19729995727539 10.440400886535645 -21.9168
28.197166442871094 11.455667304992676 -21.918
28.197032928466797 12.470933723449708 -21.919199
28.196901321411133 13.486200141906739 -21.9204
28.196767807006836 14.501467514038087 -21.9216
28.19663429260254 15.516733932495118 -21.9228
28.196500778198242 16.53200035095215 -21.924
28.376434326171875 16.53233413696289 -21.679667
28.556367874145508 16.532666969299317 -21.435333
28.73630142211914 16.53300075531006 -21.191
28.91623306274414 16.533333587646485 -20.946667
29.096166610717773 16.533667373657227 -20.702333
29.276100158691406 16.534000205993653 -20.458
29.45603370666504 16.534333992004395 -20.213667
29.635967254638672 16.53466682434082 -19.969334
29.815900802612305 16.535000610351563 -19.725
29.995834350585938 16.53533344268799 -19.480667
30.17576789855957 16.53566722869873 -19.236334
30.35569953918457 16.536000061035157 -18.992
30.535633087158203 16.5363338470459 -18.747667
30.715566635131836 16.536666679382325 -18.503334
33.61949920654297 16.54300003051758 -13.596
33.62249946594238 1.3140000004321337 -13.577
30.898500442504883 1.3080000003799797 -18.241
30.89550018310547 16.537000465393067 -18.259
33.61949920654297 16.54300003051758 -13.596
33.619699478149414 15.527733612060548 -13.594733
33.61989974975586 14.5124662399292 -13.593467
33.620100021362305 13.497199821472169 -13.592199
33.62029838562012 12.481932449340821 -13.590933
33.62049865722656 11.46666603088379 -13.589666
33.62069892883301 10.451399612426759 -13.5884
33.62089920043945 9.436133193969727 -13.587133
33.6210994720459 8.42086582183838 -13.585866
33.621299743652344 7.4055994033813475 -13.5845995
33.62150001525879 6.390332984924316 -13.583333
33.621700286865234 5.375066566467285 -13.582067
33.62189865112305 4.359800148010254 -13.5808
33.62209892272949 3.344532775878906 -13.579533
33.62229919433594 2.329266357421875 -13.578266
33.62249946594238 1.3140000004321337 -13.577
33.44089889526367 1.313600000180304 -13.887933
33.259300231933594 1.3131999999284745 -14.198866
33.07769966125488 1.3128000006079674 -14.5098
32.89609909057617 1.3124000003561378 -14.820733
32.714500427246094 1.3120000001043082 -15.131666
32.53289985656738 1.3116000007838011 -15.442599
32.35129928588867 1.3112000005319715 -15.753532
32.169700622558594 1.3108000002801419 -16.064466
31.988100051879883 1.3104000000283123 -16.3754
31.806499481201172 1.3099999997764826 -16.686333
31.624900817871094 1.3096000004559756 -16.997267
31.443300247192383 1.309200000204146 -17.308199
31.261699676513672 1.3087999999523163 -17.619133
31.080101013183594 1.3084000006318093 -17.930065
30.898500442504883 1.3080000003799797 -18.241
30.898300170898438 2.323266792297363 -18.242199
30.898099899291992 3.3385334491729735 -18.243399
30.897899627685547 4.353799867630005 -18.2446
30.897701263427734 5.369067001342773 -18.2458
30.89750099182129 6.3843334197998045 -18.247
30.897300720214844 7.399599838256836 -18.2482
30.8971004486084 8.414866733551026 -18.2494
30.896900177001953 9.430134582519532 -18.2506
30.896699905395508 10.445401000976563 -18.2518
30.896499633789062 11.460667419433594 -18.253
30.896299362182617 12.475933837890626 -18.2542
30.896100997924805 13.491200256347657 -18.2554
30.89590072631836 14.506467628479005 -18.256601
30.895700454711914 15.521734046936036 -18.257801
30.89550018310547 16.537000465393067 -18.259
31.07710075378418 16.53740005493164 -17.948133
31.258699417114258 16.537800598144532 -17.637268
31.44029998779297 16.538200187683106 -17.3264
31.62190055847168 16.538600730895997 -17.015533
31.803499221801758 16.53900032043457 -16.704666
31.98509979248047 16.539399909973145 -16.3938
32.16670036315918 16.539800453186036 -16.082933
32.34829902648926 16.54020004272461 -15.772067
32.52989959716797 16.5406005859375 -15.4612
32.71150016784668 16.541000175476075 -15.150333
32.89309883117676 16.54139976501465 -14.839466
33.07469940185547 16.54180030822754 -14.5286
33.25629997253418 16.542199897766114 -14.217733
33.43789863586426 16.542600440979005 -13.906866
35.73349952697754 16.55100040435791 -7.354
35.73649978637695 1.3219999998807908 -7.335
33.62249946594238 1.3140000004321337 -13.577
33.61949920654297 16.54300003051758 -13.596
35.73349952697754 16.55100040435791 -7.354
35.733699798583984 15.53573398590088 -7.3527336
35.73390007019043 14.520466613769532 -7.3514667
35.734100341796875 13.5052001953125 -7.3502
35.73429870605469 12.48993377685547 -7.348933
35.73449897766113 11.474667358398438 -7.3476667
35.73469924926758 10.459400939941407 -7.3464003
35.73489952087402 9.44413356781006 -7.3451333
35.73509979248047 8.428866195678712 -7.343867
35.735300064086914 7.4135997772216795 -7.3426
35.73550033569336 6.398333358764648 -7.3413334
35.735700607299805 5.383066940307617 -7.340067
35.73589897155762 4.367800521850586 -7.3388
35.73609924316406 3.352533149719238 -7.3375335
35.73629951477051 2.337266731262207 -7.3362665
35.73649978637695 1.3219999998807908 -7.335
35.59556579589844 1.3214666668325663 -7.7511334
35.454633712768555 1.3209333337843419 -8.167267
35.31369972229004 1.3204000007361174 -8.5834
35.17276573181152 1.3198666658252478 -8.999534
35.03183364868164 1.3193333327770234 -9.415667
34.890899658203125 1.318799999728799 -9.8318
34.74996566772461 1.3182666666805745 -10.247933
34.60903358459473 1.31773333363235 -10.664066
34.46809959411621 1.3172000005841256 -11.0802
34.327165603637695 1.316666665673256 -11.496333
34.18623352050781 1.3161333344876767 -11.912466
34.0452995300293 1.315599999576807 -12.3286
33.90436553955078 1.3150666665285826 -12.744734
33.7634334564209 1.3145333334803582 -13.160866
33.62249946594238 1.3140000004321337 -13.577
33.62229919433594 2.329266834259033 -13.578266
33.62209892272949 3.3445334911346434 -13.579533
33.62189865112305 4.359799909591675 -13.5808
33.621700286865234 5.375067043304443 -13.582067
33.62150001525879 6.390333461761474 -13.583333
33.621299743652344 7.405599880218506 -13.5845995
33.6210994720459 8.420866775512696 -13.585866
33.62089920043945 9.436134147644044 -13.587133
33.62069892883301 10.451400566101075 -13.5884
33.62049865722656 11.466666984558106 -13.589666
33.62029838562012 12.481933403015137 -13.590933
33.620100021362305 13.497199821472169 -13.592199
33.61989974975586 14.512467193603516 -13.593467
33.619699478149414 15.527733612060548 -13.594733
33.61949920654297 16.54300003051758 -13.596
33.760433197021484 16.54353313446045 -13.179867
33.90136528015137 16.544067192077637 -12.763733
34.04229927062988 16.54460029602051 -12.3476
34.1832332611084 16.54513339996338 -11.931466
34.32416534423828 16.54566650390625 -11.515333
34.4650993347168 16.546200561523438 -11.099199
34.60603332519531 16.54673366546631 -10.683066
34.746965408325195 16.54726676940918 -10.266933
34.88789939880371 16.54779987335205 -9.8508
35.02883338928223 16.54833393096924 -9.434667
35.16976547241211 16.54886703491211 -9.018534
35.310699462890625 16.54940013885498 -8.6024
35.45163345336914 16.549933242797852 -8.186266
35.59256553649902 16.55046730041504 -7.7701335
37.16950035095215 16.560000228881837 -0.487
37.17250061035156 1.3309999994933606 -0.468
35.73649978637695 1.3219999998807908 -7.335
35.73349952697754 16.55100040435791 -7.354
37.16950035095215 16.560000228881837 -0.487
37.169700622558594 15.544733810424805 -0.48573333
37.16990089416504 14.529466438293458 -0.48446664
37.170101165771484 13.514200019836426 -0.48319998
37.1702995300293 12.498932647705079 -0.48193333
37.17049980163574 11.483666229248048 -0.48066667
37.17070007324219 10.468399810791016 -0.47939998
37.17090034484863 9.453133392333985 -0.47813332
37.17110061645508 8.437866020202637 -0.47686666
37.17130088806152 7.422599601745605 -0.4756
37.17150115966797 6.407333183288574 -0.47433332
37.171701431274414 5.392066764831543 -0.47306666
37.17189979553223 4.3768003463745115 -0.4718
37.17210006713867 3.361532974243164 -0.4705333
37.17230033874512 2.3462665557861326 -0.46926665
37.17250061035156 1.3309999994933606 -0.468
37.07676696777344 1.3303999986499548 -0.9258
36.98103332519531 1.3297999996691943 -1.3836
36.88529968261719 1.3291999988257885 -1.8414001
36.789567947387695 1.328599999845028 -2.2992
36.69383430480957 1.3279999990016222 -2.757
36.598100662231445 1.3274000000208617 -3.2148001
36.50236701965332 1.326799999177456 -3.6726
36.406633377075195 1.3262000001966954 -4.1304
36.31089973449707 1.3255999993532896 -4.5882
36.215166091918945 1.324999998509884 -5.046
36.11943244934082 1.3243999995291234 -5.5038
36.02370071411133 1.3238000005483628 -5.9616003
35.9279670715332 1.323199999704957 -6.4194
35.83223342895508 1.3225999988615513 -6.8772
35.73649978637695 1.3219999998807908 -7.335
35.73629951477051 2.337266731262207 -7.3362665
35.73609924316406 3.3525336265563963 -7.3375335
35.73589897155762 4.367800045013428 -7.3388
35.735700607299805 5.383066940307617 -7.340067
35.73550033569336 6.398333358764648 -7.3413334
35.735300064086914 7.4135997772216795 -7.3426
35.73509979248047 8.42886667251587 -7.343867
35.73489952087402 9.444134521484376 -7.3451333
35.73469924926758 10.459400939941407 -7.3464003
35.73449897766113 11.474667358398438 -7.3476667
35.73429870605469 12.48993377685547 -7.348933
35.734100341796875 13.5052001953125 -7.3502
35.73390007019043 14.520467567443848 -7.3514667
35.733699798583984 15.53573398590088 -7.3527336
35.73349952697754 16.55100040435791 -7.354
35.829233169555664 16.55160026550293 -6.8962
35.92496681213379 16.55220012664795 -6.4384003
36.020700454711914 16.55279998779297 -5.9806
36.116432189941406 16.553400802612305 -5.5228
36.21216583251953 16.554000663757325 -5.065
36.307899475097656 16.554600524902344 -4.6071997
36.40363311767578 16.555200386047364 -4.1493998
36.499366760253906 16.555800247192384 -3.6915998
36.59510040283203 16.556400108337403 -3.2338
36.690834045410156 16.556999969482423 -2.776
36.78656768798828 16.557599830627442 -2.3182
36.88229942321777 16.558200645446778 -1.8603997
36.9780330657959 16.558800506591798 -1.4025998
37.07376670837402 16.559400367736817 -0.9447999
36.78750038146973 16.567999649047852 6.172
36.79050064086914 1.3390000008046627 6.19
37.17250061035156 1.3309999994933606 -0.468
37.16950035095215 16.560000228881837 -0.487
36.78750038146973 16.567999649047852 6.172
36.78770065307617 15.552733230590821 6.1732
36.78790092468262 14.537465858459473 6.1744
36.78810119628906 13.522199440002442 6.1756
36.788299560546875 12.506932067871094 6.1768
36.78849983215332 11.491665649414063 6.178
36.788700103759766 10.476399230957032 6.1792
36.78890037536621 9.4611328125 6.1804
36.789100646972656 8.445865440368653 6.1816
36.7893009185791 7.430599021911621 6.1828
36.78950119018555 6.41533260345459 6.184
36.78970146179199 5.400066184997558 6.1852
36.789899826049805 4.384799766540527 6.1864
36.79010009765625 3.3695323944091795 6.1876
36.790300369262695 2.3542659759521483 6.1888
36.79050064086914 1.3390000008046627 6.19
36.81596755981445 1.3384666658937932 5.7461333
36.841434478759766 1.3379333347082139 5.3022666
36.86690139770508 1.3373999997973443 4.8584
36.89236640930176 1.336866668611765 4.414533
36.91783332824707 1.3363333337008954 3.9706666
36.94330024719238 1.3357999987900258 3.5268
36.968767166137695 1.3352666676044465 3.0829334
36.99423408508301 1.3347333326935769 2.6390665
37.01970100402832 1.3341999977827073 2.1952
37.04516792297363 1.333666666597128 1.7513332
37.070634841918945 1.3331333316862584 1.3074665
37.096099853515625 1.332600000500679 0.8635998
37.12156677246094 1.3320666655898095 0.41973352
37.14703369140625 1.3315333344042302 -0.024133205
37.17250061035156 1.3309999994933606 -0.468
37.17230033874512 2.3462667942047117 -0.46926665
37.17210006713867 3.361533451080322 -0.47053334
37.17189979553223 4.376799869537353 -0.4718
37.171701431274414 5.392067241668701 -0.47306666
37.17150115966797 6.407333660125732 -0.47433332
37.17130088806152 7.4226000785827635 -0.4756
37.17110061645508 8.437866973876954 -0.47686666
37.17090034484863 9.453134346008301 -0.47813332
37.17070007324219 10.468400764465333 -0.47939998
37.17049980163574 11.483667182922364 -0.48066667
37.1702995300293 12.498933601379395 -0.48193333
37.170101165771484 13.514200019836426 -0.48319998
37.16990089416504 14.529467391967774 -0.48446667
37.169700622558594 15.544733810424805 -0.48573333
37.16950035095215 16.560000228881837 -0.487
37.144033432006836 16.560533332824708 -0.04306665
37.11856651306152 16.56106643676758 0.4008667
37.09309959411621 16.561600494384766 0.8448
37.06763458251953 16.562133598327637 1.2887334
37.04216766357422 16.56266670227051 1.7326667
37.016700744628906 16.56319980621338 2.1766
36.991233825683594 16.56373291015625 2.6205332
36.96576690673828 16.564266967773438 3.0644667
36.94029998779297 16.56480007171631 3.5084002
36.914833068847656 16.56533317565918 3.9523335
36.889366149902344 16.56586627960205 4.396267
36.863901138305664 16.566399383544923 4.8402
36.83843421936035 16.56693344116211 5.2841334
36.81296730041504 16.56746654510498 5.7280664
35.34250068664551 16.576000022888184 13.241
35.34550094604492 1.3480000004172326 13.259
36.79050064086914 1.3390000008046627 6.19
36.78750038146973 16.567999649047852 6.172
35.34250068664551 16.576000022888184 13.241
35.34270095825195 15.560800361633301 13.2422
35.3429012298584 14.545599746704102 13.243401
35.343101501464844 13.53040008544922 13.2446
35.343299865722656 12.515200424194337 13.2458
35.3435001373291 11.499999809265137 13.247
35.34370040893555 10.484800148010255 13.2482
35.34390068054199 9.469599533081055 13.2494
35.34410095214844 8.454399871826173 13.2506
35.34430122375488 7.439200210571289 13.2518
35.34450149536133 6.42399959564209 13.253
35.34470176696777 5.408799934387207 13.2542
35.344900131225586 4.393600273132324 13.2554
35.34510040283203 3.3784006118774412 13.256599
35.34530067443848 2.363199996948242 13.2578
35.34550094604492 1.3480000004172326 13.259
35.44183349609375 1.347400001436472 12.787733
35.53816795349121 1.346799998730421 12.316466
35.63450050354004 1.3461999997496605 11.8452
35.7308349609375 1.3456000007689 11.373933
35.82716751098633 1.3450000017881394 10.902666
35.923500061035156 1.3443999990820885 10.4314
36.01983451843262 1.343800000101328 9.960134
36.116167068481445 1.3432000011205674 9.488867
36.212501525878906 1.3425999984145165 9.017599
36.308834075927734 1.341999999433756 8.546333
36.40516662597656 1.3414000004529953 8.075067
36.50150108337402 1.3408000014722348 7.6038
36.59783363342285 1.3402000024914742 7.132533
36.69416809082031 1.3395999997854233 6.661267
36.79050064086914 1.3390000008046627 6.19
36.790300369262695 2.354266810417175 6.1888
36.79010009765625 3.369533586502075 6.1876
36.789899826049805 4.384800004959106 6.1864
36.78970146179199 5.400067138671875 6.1852
36.78950119018555 6.415333557128906 6.184
36.7893009185791 7.430599975585937 6.1828
36.789100646972656 8.445866870880128 6.1816
36.78890037536621 9.461133766174317 6.1804
36.788700103759766 10.476400184631348 6.1792
36.78849983215332 11.49166660308838 6.178
36.788299560546875 12.50693302154541 6.1768
36.78810119628906 13.522199440002442 6.1756
36.78790092468262 14.53746681213379 6.1744
36.78770065307617 15.552733230590821 6.1732
36.78750038146973 16.567999649047852 6.172
36.6911678314209 16.568532752990723 6.6432667
36.59483337402344 16.56906681060791 7.1145334
36.49850082397461 16.569599914550782 7.5858
36.40216636657715 16.570133018493653 8.057067
36.30583381652832 16.570666122436524 8.528334
36.20950126647949 16.57120018005371 8.9996
36.11316680908203 16.571733283996583 9.470867
36.0168342590332 16.572266387939454 9.942134
35.92049980163574 16.572799491882325 10.413401
35.824167251586914 16.573333549499512 10.884666
35.727834701538086 16.573866653442384 11.355934
35.631500244140625 16.574399757385255 11.8272
35.5351676940918 16.574932861328126 12.298467
35.438833236694336 16.575466918945313 12.769733
32.72050094604492 16.582999992370606 19.786
32.7234992980957 1.3549999997019768 19.804
35.34550094604492 1.3480000004172326 13.259
35.34250068664551 16.576000022888184 13.241
32.72050094604492 16.582999992370606 19.786
32.72070121765137 15.567800331115723 19.787199
32.72090148925781 14.552599716186524 19.788399
32.721099853515625 13.537400054931641 19.7896
32.72130012512207 12.522200393676759 19.7908
32.721500396728516 11.50699977874756 19.792
32.72170066833496 10.491800117492676 19.7932
32.721900939941406 9.476599502563477 19.7944
32.72209930419922 8.461399841308594 19.7956
32.722299575805664 7.446200180053711 19.7968
32.72249984741211 6.4309995651245115 19.798
32.722700119018555 5.415799903869629 19.7992
32.722900390625 4.400600242614746 19.8004
32.72309875488281 3.385400581359863 19.801601
32.72329902648926 2.370199966430664 19.802801
32.7234992980957 1.3549999997019768 19.804
32.89830017089844 1.3545333325862885 19.367668
33.07309913635254 1.3540666654706002 18.931334
33.24790000915527 1.3535999983549118 18.495
33.422698974609375 1.3531333312392235 18.058666
33.59749984741211 1.3526666678488255 17.622334
33.772300720214844 1.3522000007331372 17.186
33.947099685668945 1.3517333336174489 16.749666
34.12190055847168 1.3512666665017605 16.313334
34.29669952392578 1.3507999993860722 15.877
34.471500396728516 1.3503333322703839 15.440666
34.64630126953125 1.3498666651546956 15.0043335
34.82110023498535 1.3494000017642975 14.568
34.995901107788086 1.3489333346486092 14.131666
35.17070007324219 1.3484666675329209 13.6953335
35.34550094604492 1.3480000004172326 13.259
35.34530067443848 2.363199996948242 13.2578
35.34510040283203 3.378400135040283 13.256599
35.344900131225586 4.393600034713745 13.2554
35.34470176696777 5.408799934387207 13.2542
35.34450149536133 6.424000072479248 13.253
35.34430122375488 7.439199733734131 13.2518
35.34410095214844 8.454399871826173 13.2506
35.34390068054199 9.469600486755372 13.2494
35.34370040893555 10.484800148010255 13.2482
35.3435001373291 11.500000762939454 13.247
35.343299865722656 12.515200424194337 13.2458
35.343101501464844 13.53040008544922 13.2446
35.3429012298584 14.545599746704102 13.243401
35.34270095825195 15.560800361633301 13.2422
35.34250068664551 16.576000022888184 13.241
35.16769981384277 16.576466369628907 13.677334
34.99290084838867 16.576933670043946 14.113667
34.81809997558594 16.57740001678467 14.55
34.643301010131836 16.57786636352539 14.986334
34.4685001373291 16.57833366394043 15.422667
34.293701171875 16.578800010681153 15.859
34.118900299072266 16.579266357421876 16.295334
33.944101333618164 16.579733657836915 16.731667
33.76930046081543 16.580200004577637 17.168
33.59450149536133 16.58066635131836 17.604332
33.419700622558594 16.5811336517334 18.040667
33.24490165710449 16.581599998474122 18.477
33.07010078430176 16.582066345214844 18.913334
32.895301818847656 16.582533645629884 19.349667
29.679500579833984 16.588000106811524 24.257
29.6825008392334 1.3599999986588955 24.276
32.7234992980957 1.3549999997019768 19.804
32.72050094604492 16.582999992370606 19.786
29.679500579833984 16.588000106811524 24.257
29.67970085144043 15.572800445556641 24.258266
29.679901123046875 14.557599830627442 24.259533
29.68010139465332 13.54240016937256 24.2608
29.680299758911133 12.52719955444336 24.262066
29.680500030517578 11.511999893188477 24.263332
29.680700302124023 10.496800231933594 24.264599
29.68090057373047 9.481600570678712 24.265865
29.681100845336914 8.466399955749512 24.267134
29.68130111694336 7.451200294494629 24.2684
29.681501388549805 6.4359996795654295 24.269667
29.68170166015625 5.420800018310547 24.270933
29.681900024414062 4.405600357055664 24.2722
29.682100296020508 3.390400695800781 24.273466
29.682300567626953 2.375200080871582 24.274733
29.6825008392334 1.3599999986588955 24.276
29.885234832763672 1.3596666671335698 23.977865
30.087966918945312 1.3593333318829537 23.679733
30.290700912475586 1.359000000357628 23.3816
30.493432998657227 1.3586666651070118 23.083466
30.6961669921875 1.358333333581686 22.785334
30.898900985717773 1.35799999833107 22.4872
31.101633071899414 1.3576666668057442 22.189066
31.304367065429688 1.3573333315551281 21.890934
31.507099151611328 1.3570000000298024 21.5928
31.7098331451416 1.3566666647791863 21.294666
31.912567138671875 1.3563333332538605 20.996534
32.115299224853516 1.3559999980032444 20.6984
32.31803321838379 1.3556666664779187 20.400267
32.52076530456543 1.3553333312273026 20.102135
32.7234992980957 1.3549999997019768 19.804
32.72329902648926 2.370199966430664 19.802801
32.72309875488281 3.385400104522705 19.801601
32.722900390625 4.400600004196167 19.8004
32.722700119018555 5.415799903869629 19.7992
32.72249984741211 6.43100004196167 19.798
32.722299575805664 7.446199703216553 19.7968
32.72209930419922 8.461399841308594 19.7956
32.721900939941406 9.476600456237794 19.7944
32.72170066833496 10.491800117492676 19.7932
32.721500396728516 11.507000732421876 19.792
32.72130012512207 12.522200393676759 19.7908
32.721099853515625 13.537400054931641 19.7896
32.72090148925781 14.552599716186524 19.788399
32.72070121765137 15.567800331115723 19.787199
32.72050094604492 16.582999992370606 19.786
32.51776695251465 16.58333377838135 20.084066
32.31503486633301 16.583666610717774 20.382133
32.112300872802734 16.584000396728516 20.680199
31.90956687927246 16.584333229064942 20.978266
31.70683479309082 16.584667015075684 21.276333
31.504100799560547 16.58499984741211 21.5744
31.301366806030273 16.585333633422852 21.872467
31.098634719848633 16.585666465759278 22.170532
30.89590072631836 16.58600025177002 22.4686
30.693166732788086 16.586333084106446 22.766666
30.490434646606445 16.586666870117188 23.064734
30.287700653076172 16.586999702453614 23.3628
30.0849666595459 16.587333488464356 23.660866
29.882234573364258 16.587666320800782 23.958933
27.63450050354004 16.58600025177002 22.766
27.637500762939453 1.35799999833107 22.785
29.6825008392334 1.3599999986588955 24.276
29.679500579833984 16.588000106811524 24.257
27.63450050354004 16.58600025177002 22.766
27.634700775146484 15.570799636840821 22.767267
27.63490104675293 14.555599975585938 22.768534
27.635101318359375 13.540400314331055 22.7698
27.635299682617188 12.525199699401856 22.771067
27.635499954223633 11.510000038146973 22.772333
27.635700225830078 10.494799423217774 22.7736
27.635900497436523 9.479599761962891 22.774866
27.63610076904297 8.464399147033692 22.776134
27.636301040649414 7.449199485778808 22.777401
27.63650131225586 6.433999824523926 22.778667
27.636701583862305 5.418799209594726 22.779934
27.636899948120117 4.403599548339844 22.7812
27.637100219726562 3.3883998870849608 22.782467
27.637300491333008 2.3731992721557615 22.783733
27.637500762939453 1.35799999833107 22.785
27.773834228515625 1.3581333301961422 22.8844
27.910167694091797 1.3582666657865048 22.983799
28.04650115966797 1.358399997651577 23.0832
28.18283462524414 1.3585333332419396 23.1826
28.319168090820312 1.3586666651070118 23.282
28.455501556396484 1.358799996972084 23.3814
28.591835021972656 1.3589333325624466 23.480799
28.728168487548828 1.359066664427519 23.5802
28.864500045776367 1.3592000000178814 23.6796
29.00083351135254 1.3593333318829537 23.779
29.13716697692871 1.359466663748026 23.878399
29.273500442504883 1.3595999993383885 23.977798
29.409833908081055 1.3597333312034607 24.0772
29.546167373657227 1.3598666667938233 24.1766
29.6825008392334 1.3599999986588955 24.276
29.682300567626953 2.3751999616622923 24.274733
29.682100296020508 3.3903999805450438 24.273466
29.681900024414062 4.405599880218506 24.2722
29.68170166015625 5.420800018310547 24.270933
29.681501388549805 6.436000156402588 24.269667
29.68130111694336 7.4511998176574705 24.2684
29.681100845336914 8.466399955749512 24.267134
29.68090057373047 9.481600570678712 24.265865
29.680700302124023 10.496800231933594 24.264599
29.680500030517578 11.512000846862794 24.263332
29.680299758911133 12.527200508117676 24.262066
29.68010139465332 13.54240016937256 24.2608
