-16.384565 4.9234004 -15.441866
-16.384699 5.5382004 -15.442599
-16.384832 6.1530004 -15.443333
-16.384966 6.7678003 -15.444066
-16.3851 7.3826003 -15.444799
-16.385233 7.9974003 -15.445533
-16.385366 8.612201 -15.446266
-16.3855 9.227 -15.447
-16.221033 9.2269335 -15.515733
-16.056566 9.226867 -15.584466
-15.8921 9.2268 -15.6532
-15.727633 9.226733 -15.721933
-15.563167 9.226666 -15.790667
-15.3987 9.2266 -15.8594
-15.234233 9.226533 -15.928133
-15.069767 9.226467 -15.996867
-14.9053 9.2264 -16.0656
-14.740833 9.226334 -16.134335
-14.576366 9.226267 -16.203068
-14.4119 9.2262 -16.271801
-14.247433 9.226133 -16.340534
-14.082967 9.226067 -16.409267
-13.9185 9.226 -16.478
-13.9185 9.226 -16.478
-13.9185 9.226 -16.478
-13.9185 9.226 -16.478
-13.9185 9.226 -16.478
-13.9185 9.226 -16.478
-13.9185 9.226 -16.478
-13.9185 9.226 -16.478
-13.9185 9.226 -16.478
-13.9185 9.226 -16.478
-13.9185 9.226 -16.478
-13.9185 9.226 -16.478
-13.9185 9.226 -16.478
-13.9185 9.226 -16.478
-13.9185 9.226 -16.478
-9.3745 9.225 -17.345
-9.3725 0.004 -17.334
-13.9165 0.004 -16.467
-13.9185 9.226 -16.478
-9.3745 9.225 -17.345
-9.374367 8.610267 -17.344267
-9.374233 7.9955335 -17.343533
-9.374101 7.3808002 -17.3428
-9.373967 6.7660666 -17.342066
-9.373834 6.1513333 -17.341333
-9.3737 5.5366 -17.3406
-9.373567 4.921867 -17.339867
-9.373434 4.307133 -17.339132
-9.373301 3.6924 -17.3384
-9.373167 3.0776663 -17.337666
-9.373034 2.462933 -17.336933
-9.3729 1.8481998 -17.336199
-9.372767 1.2334666 -17.335466
-9.372634 0.6187334 -17.334732
-9.3725 0.004 -17.334
-9.675434 0.004 -17.2762
-9.978367 0.004 -17.2184
-10.281301 0.004 -17.160599
-10.584234 0.004 -17.1028
-10.887167 0.004 -17.045
-11.190101 0.004 -16.9872
-11.493033 0.004 -16.9294
-11.795967 0.004 -16.8716
-12.0989 0.004 -16.813799
-12.401834 0.004 -16.755999
-12.704767 0.004 -16.698198
-13.0077 0.004 -16.6404
-13.310634 0.004 -16.5826
-13.613567 0.004 -16.5248
-13.9165 0.004 -16.467
-13.916634 0.61880004 -16.467733
-13.916767 1.2336 -16.468466
-13.9169 1.8484 -16.4692
-13.917033 2.4632 -16.469933
-13.917167 3.078 -16.470667
-13.9173 3.6928 -16.4714
-13.917434 4.3076005 -16.472134
-13.917566 4.9224005 -16.472866
-13.9177 5.5372005 -16.4736
-13.917833 6.1520004 -16.474333
-13.917967 6.7668004 -16.475067
-13.9181 7.3816004 -16.4758
-13.918233 7.9964004 -16.476534
-13.918366 8.6112 -16.477266
-13.9185 9.226 -16.478
-13.615566 9.225933 -16.5358
-13.3126335 9.225866 -16.593601
-13.0097 9.2258 -16.6514
-12.706766 9.225734 -16.7092
-12.403833 9.225667 -16.767
-12.1009 9.2256 -16.8248
-11.797967 9.2255335 -16.8826
-11.495033 9.225467 -16.9404
-11.192101 9.2254 -16.9982
-10.889167 9.225333 -17.056
-10.586233 9.225266 -17.1138
-10.2833 9.225201 -17.1716
-9.980367 9.225134 -17.229399
-9.677433 9.225067 -17.287199
-9.3745 9.225 -17.345
-9.3745 9.225 -17.345
-9.3745 9.225 -17.345
-9.3745 9.225 -17.345
-9.3745 9.225 -17.345
-9.3745 9.225 -17.345
-9.3745 9.225 -17.345
-9.3745 9.225 -17.345
-9.3745 9.225 -17.345
-9.3745 9.225 -17.345
-9.3745 9.225 -17.345
-9.3745 9.225 -17.345
-9.3745 9.225 -17.345
-9.3745 9.225 -17.345
-9.3745 9.225 -17.345
-4.7575 9.227 -17.055
-4.7555 0.005 -17.043
-9.3725 0.004 -17.334
-9.3745 9.225 -17.345
-4.7575 9.227 -17.055
-4.7573667 8.6122 -17.054201
-4.7572336 7.9974003 -17.0534
-4.7571 7.3826003 -17.0526
-4.7569666 6.7678003 -17.0518
-4.7568336 6.153 -17.051
-4.7567 5.5382004 -17.0502
-4.7565665 4.9234 -17.0494
-4.7564335 4.3086 -17.0486
-4.7563 3.6938 -17.0478
-4.7561665 3.079 -17.046999
-4.7560334 2.4642 -17.0462
-4.7559 1.8494 -17.045399
-4.7557664 1.2346001 -17.0446
-4.7556334 0.6197996 -17.043798
-4.7555 0.005 -17.043
-5.0633 0.004933333 -17.062399
-5.3711 0.0048666666 -17.081799
-5.6789 0.0047999998 -17.1012
-5.9867 0.0047333334 -17.1206
-6.2945004 0.0046666665 -17.14
-6.6023 0.0046 -17.159399
-6.9101 0.0045333332 -17.178799
-7.2179003 0.004466667 -17.1982
-7.5257006 0.0044 -17.2176
-7.8335004 0.0043333336 -17.237
-8.1413 0.0042666667 -17.2564
-8.4491005 0.0042000003 -17.275799
-8.756901 0.0041333335 -17.2952
-9.064701 0.0040666666 -17.3146
-9.3725 0.004 -17.334
-9.372634 0.6187334 -17.334732
-9.372767 1.2334667 -17.335466
-9.3729 1.8482001 -17.336199
-9.373034 2.4629335 -17.336933
-9.373167 3.077667 -17.337666
-9.373301 3.6924002 -17.3384
-9.373434 4.3071337 -17.339132
-9.373567 4.9218674 -17.339867
-9.3737 5.5366006 -17.3406
-9.373834 6.1513343 -17.341333
-9.373967 6.7660675 -17.342066
-9.374101 7.3808007 -17.3428
-9.374233 7.995534 -17.343533
-9.374367 8.610267 -17.344267
-9.3745 9.225 -17.345
-9.0667 9.225134 -17.325666
-8.758901 9.225267 -17.306334
-8.4511 9.2254 -17.286999
-8.1433 9.2255335 -17.267666
-7.8355002 9.225667 -17.248333
-7.5277004 9.2258005 -17.229
-7.2199 9.225934 -17.209667
-6.9121 9.226067 -17.190332
-6.6043 9.2262 -17.171
-6.2965 9.226334 -17.151667
-5.9887 9.226467 -17.132334
-5.6809 9.226601 -17.113
-5.3731003 9.226733 -17.093666
-5.0653 9.226867 -17.074333
-4.7575 9.227 -17.055
-4.7575 9.227 -17.055
-4.7575 9.227 -17.055
-4.7575 9.227 -17.055
-4.7575 9.227 -17.055
-4.7575 9.227 -17.055
-4.7575 9.227 -17.055
-4.7575 9.227 -17.055
-4.7575 9.227 -17.055
-4.7575 9.227 -17.055
-4.7575 9.227 -17.055
-4.7575 9.227 -17.055
-4.7575 9.227 -17.055
-4.7575 9.227 -17.055
-4.7575 9.227 -17.055
-0.3575 9.229 -15.625
-0.3555 0.008 -15.614
-4.7555 0.005 -17.043
-4.7575 9.227 -17.055
-0.3575 9.229 -15.625
-0.35736665 8.614266 -15.624267
-0.35723332 7.9995337 -15.623533
-0.35709998 7.3848 -15.6228
-0.35696667 6.7700667 -15.6220665
-0.35683334 6.1553335 -15.621333
-0.3567 5.5406 -15.6206
-0.35656667 4.925867 -15.619866
-0.35643333 4.3111334 -15.619134
-0.3563 3.6964002 -15.618401
-0.35616666 3.081667 -15.617667
-0.35603333 2.4669333 -15.616934
-0.35590002 1.8522 -15.6162
-0.35576668 1.2374668 -15.615467
-0.35563335 0.62273407 -15.614734
-0.3555 0.008 -15.614
-0.64883333 0.0078000003 -15.709267
-0.9421667 0.0076 -15.804534
-1.2355 0.0074000005 -15.8998
-1.5288333 0.0072000003 -15.995067
-1.8221666 0.007 -16.090334
-2.1155 0.0068 -16.1856
-2.4088333 0.0066 -16.280867
-2.7021666 0.0064000003 -16.376133
-2.9954998 0.0062 -16.4714
-3.2888331 0.006 -16.566666
-3.5821664 0.0058 -16.661934
-3.8754997 0.0056 -16.7572
-4.1688333 0.0054 -16.852467
-4.462167 0.0052 -16.947733
-4.7555 0.005 -17.043
-4.7556334 0.61980003 -17.043798
-4.7557664 1.2346001 -17.0446
-4.7559 1.8494 -17.045399
-4.7560334 2.4642003 -17.0462
-4.7561665 3.0790002 -17.046999
-4.7563 3.6938002 -17.0478
-4.7564335 4.3086004 -17.0486
-4.7565665 4.9234004 -17.0494
-4.7567 5.5382004 -17.0502
-4.7568336 6.1530004 -17.051
-4.7569666 6.7678003 -17.0518
-4.7571 7.3826003 -17.0526
-4.7572336 7.9974003 -17.0534
-4.7573667 8.612201 -17.054201
-4.7575 9.227 -17.055
-4.4641666 9.227134 -16.959667
-4.1708336 9.227267 -16.864334
-3.8775 9.2274 -16.769001
-3.5841668 9.227533 -16.673666
-3.2908335 9.227667 -16.578333
-2.9975 9.2278 -16.483
-2.704167 9.227934 -16.387667
-2.4108334 9.228066 -16.292334
-2.1175 9.2282 -16.197
-1.8241668 9.228333 -16.101667
-1.5308335 9.228467 -16.006332
-1.2375 9.2286005 -15.911
-0.94416666 9.228733 -15.815666
-0.6508336 9.228867 -15.720333
-0.3575 9.229 -15.625
-0.3575 9.229 -15.625
-0.3575 9.229 -15.625
-0.3575 9.229 -15.625
-0.3575 9.229 -15.625
-0.3575 9.229 -15.625
-0.3575 9.229 -15.625
-0.3575 9.229 -15.625
-0.3575 9.229 -15.625
-0.3575 9.229 -15.625
-0.3575 9.229 -15.625
-0.3575 9.229 -15.625
-0.3575 9.229 -15.625
-0.3575 9.229 -15.625
-0.3575 9.229 -15.625
1.0675 9.231 -14.721
1.0695 0.009 -14.709
-0.3555 0.008 -15.614
-0.3575 9.229 -15.625
1.0675 9.231 -14.721
1.0676333 8.6161995 -14.7202
1.0677667 8.0014 -14.719399
1.0679 7.3866 -14.718599
1.0680333 6.7718 -14.7178
1.0681666 6.1569996 -14.717
1.0683 5.5422 -14.7162
1.0684333 4.9273996 -14.7154
1.0685667 4.3125997 -14.7146
1.0687 3.6977997 -14.713799
1.0688334 3.0829997 -14.712999
1.0689666 2.4681997 -14.712199
1.0691 1.8533998 -14.7114
1.0692333 1.2385998 -14.7106
1.0693667 0.6237993 -14.7098
1.0695 0.009 -14.709
0.97449994 0.008933333 -14.769333
0.8795 0.008866667 -14.829666
0.7845 0.0088 -14.889999
0.6895 0.008733333 -14.950334
0.59449995 0.008666666 -15.010667
0.49949998 0.0086 -15.071
0.4045 0.008533333 -15.131333
0.30949998 0.008466667 -15.191667
0.21449995 0.0084 -15.252
0.11949998 0.008333334 -15.312333
0.024500012 0.008266667 -15.372667
-0.070500016 0.0082 -15.433001
-0.16550004 0.008133333 -15.493334
-0.26049995 0.008066667 -15.553667
-0.3555 0.008 -15.614
-0.35563335 0.62273335 -15.614734
-0.35576668 1.2374667 -15.615467
-0.35590002 1.8522 -15.6162
-0.35603333 2.4669333 -15.616934
-0.35616666 3.0816665 -15.617667
-0.3563 3.6964 -15.618401
-0.35643333 4.311133 -15.619134
-0.35656667 4.9258666 -15.619866
-0.3567 5.5406 -15.6206
-0.35683334 6.155333 -15.621333
-0.35696667 6.7700667 -15.6220665
-0.35709998 7.3848 -15.6228
-0.35723332 7.999533 -15.623533
-0.35736665 8.614266 -15.624267
-0.3575 9.229 -15.625
-0.2625 9.229134 -15.5647335
-0.16749999 9.229267 -15.504467
-0.07249999 9.2294 -15.4442
0.022500008 9.229533 -15.383933
0.11750001 9.229667 -15.323667
0.2125 9.2298 -15.2634
0.30749997 9.229934 -15.203134
0.4025 9.230066 -15.142866
0.49750003 9.2302 -15.0826
0.5925 9.230333 -15.022333
0.6875 9.230467 -14.962067
0.7825 9.2306 -14.9018
0.87750006 9.230733 -14.841533
0.97249997 9.230866 -14.781266
1.0675 9.231 -14.721
1.0675 9.231 -14.721
1.0675 9.231 -14.721
1.0675 9.231 -14.721
1.0675 9.231 -14.721
1.0675 9.231 -14.721
1.0675 9.231 -14.721
1.0675 9.231 -14.721
1.0675 9.231 -14.721
1.0675 9.231 -14.721
1.0675 9.231 -14.721
1.0675 9.231 -14.721
1.0675 9.231 -14.721
1.0675 9.231 -14.721
1.0675 9.231 -14.721
-0.3585 9.27 17.775
-0.3565 0.048 17.787
2.1485 0.047 16.197
2.1465 9.269 16.186
-0.3585 9.27 17.775
-0.35836667 8.6552 17.775799
-0.35823333 8.0404005 17.7766
-0.3581 7.4256005 17.7774
-0.35796666 6.8108006 17.7782
-0.35783333 6.196 17.779
-0.3577 5.5812006 17.7798
-0.35756665 4.9664 17.7806
-0.35743335 4.3516 17.7814
-0.3573 3.7368002 17.7822
-0.35716668 3.1220002 17.783
-0.35703334 2.5072002 17.7838
-0.3569 1.8924003 17.784601
-0.35676667 1.2776003 17.7854
-0.35663334 0.66279984 17.786201
-0.3565 0.048 17.787
-0.1895 0.047933333 17.681
-0.022500008 0.04786667 17.575
0.14449999 0.0478 17.469
0.31149998 0.047733333 17.363
0.47849998 0.047666665 17.257
0.64549994 0.0476 17.151001
0.8124999 0.047533333 17.045
0.97949994 0.047466666 16.939001
1.1465 0.047399998 16.833
1.3134999 0.047333334 16.727001
1.4804999 0.047266666 16.621
1.6474999 0.047199998 16.515001
1.8145 0.04713333 16.409
1.9814998 0.047066666 16.303001
2.1485 0.047 16.197
2.1483667 0.6618 16.196268
2.1482334 1.2766001 16.195534
2.1481 1.8914001 16.194801
2.1479666 2.5062 16.194067
2.1478333 3.121 16.193335
2.1477 3.7358 16.1926
2.1475668 4.3506002 16.191868
2.1474333 4.9654 16.191133
2.1473 5.5802 16.190401
2.1471667 6.195 16.189667
2.1470335 6.8098 16.188934
2.1469002 7.4246 16.1882
2.1467667 8.0394 16.187468
2.1466334 8.654201 16.186733
2.1465 9.269 16.186
1.9795 9.269067 16.291935
1.8125001 9.269134 16.397867
1.6455001 9.2692 16.503801
1.4785001 9.269267 16.609734
1.3115001 9.269334 16.715668
1.1445 9.269401 16.8216
0.9775001 9.269467 16.927534
0.8105 9.269533 17.033466
0.6435 9.2696 17.1394
0.47650003 9.269667 17.245333
0.30949998 9.269733 17.351267
0.14249992 9.2698 17.4572
-0.024499893 9.269867 17.563133
-0.19149995 9.269934 17.669067
-0.3585 9.27 17.775
-0.3585 9.27 17.775
-0.3585 9.27 17.775
-0.3585 9.27 17.775
-0.3585 9.27 17.775
-0.3585 9.27 17.775
-0.3585 9.27 17.775
-0.3585 9.27 17.775
-0.3585 9.27 17.775
-0.3585 9.27 17.775
-0.3585 9.27 17.775
-0.3585 9.27 17.775
-0.3585 9.27 17.775
-0.3585 9.27 17.775
-0.3585 9.27 17.775
-4.7585 9.271 19.204
-4.7565 0.049 19.216
-0.3565 0.048 17.787
-0.3585 9.27 17.775
-4.7585 9.271 19.204
-4.7583666 8.656199 19.2048
-4.7582335 8.0414 19.2056
-4.7581 7.4266 19.2064
-4.7579665 6.8118 19.207201
-4.7578335 6.1969995 19.208
-4.7577 5.5822 19.2088
-4.7575665 4.9673996 19.2096
-4.7574334 4.3525996 19.2104
-4.7573 3.7377996 19.2112
-4.7571664 3.1229997 19.212
-4.7570333 2.5081997 19.2128
-4.7569 1.8933997 19.2136
-4.7567663 1.2785997 19.2144
-4.7566333 0.6637993 19.2152
-4.7565 0.049 19.216
-4.463166 0.04893333 19.120733
-4.169833 0.048866667 19.025467
-3.8765 0.0488 18.9302
-3.5831666 0.04873333 18.834932
-3.289833 0.048666667 18.739666
-2.9965 0.0486 18.6444
-2.7031665 0.04853333 18.549133
-2.4098332 0.048466668 18.453867
-2.1165 0.0484 18.3586
-1.8231666 0.048333332 18.263334
-1.5298333 0.048266668 18.168068
-1.2365 0.0482 18.0728
-0.94316673 0.048133332 17.977533
-0.6498332 0.04806667 17.882267
-0.3565 0.048 17.787
-0.35663334 0.6628 17.786201
-0.35676667 1.2776 17.7854
-0.3569 1.8924 17.784601
-0.35703334 2.5072002 17.7838
-0.35716668 3.1220002 17.783
-0.3573 3.7368002 17.7822
-0.35743335 4.3516 17.7814
-0.35756665 4.9664 17.7806
-0.3577 5.5812 17.7798
-0.35783333 6.196 17.779
-0.35796666 6.8108 17.7782
-0.3581 7.4256 17.7774
-0.35823333 8.0404005 17.7766
-0.35836667 8.655201 17.775799
-0.3585 9.27 17.775
-0.65183336 9.270067 17.870266
-0.9451667 9.270134 17.965532
-1.2385001 9.270201 18.0608
-1.5318334 9.270267 18.156067
-1.8251667 9.270333 18.251333
-2.1185002 9.2704 18.3466
-2.4118333 9.270467 18.441866
-2.7051668 9.270534 18.537134
-2.9985 9.2706 18.6324
-3.2918334 9.270667 18.727667
-3.5851667 9.270734 18.822933
-3.8785002 9.2708 18.9182
-4.1718335 9.270866 19.013468
-4.4651666 9.270933 19.108734
-4.7585 9.271 19.204
-4.7585 9.271 19.204
-4.7585 9.271 19.204
-4.7585 9.271 19.204
-4.7585 9.271 19.204
-4.7585 9.271 19.204
-4.7585 9.271 19.204
-4.7585 9.271 19.204
-4.7585 9.271 19.204
-4.7585 9.271 19.204
-4.7585 9.271 19.204
-4.7585 9.271 19.204
-4.7585 9.271 19.204
-4.7585 9.271 19.204
-4.7585 9.271 19.204
-9.3755 9.27 19.495
-9.3735 0.049 19.506
-4.7565 0.049 19.216
-4.7585 9.271 19.204
-9.3755 9.27 19.495
-9.375366 8.655267 19.495733
-9.375233 8.040534 19.496468
-9.3751 7.4258003 19.4972
-9.374967 6.8110666 19.497934
-9.374833 6.1963334 19.498667
-9.3747 5.5816 19.499401
-9.374566 4.966867 19.500134
-9.3744335 4.3521333 19.500868
-9.3743 3.7374 19.5016
-9.3741665 3.1226664 19.502335
-9.374033 2.5079331 19.503067
-9.373899 1.8931999 19.503801
-9.373767 1.2784667 19.504534
-9.373633 0.6637335 19.505268
-9.3735 0.049 19.506
-9.0657 0.049 19.486668
-8.7579 0.049 19.467333
-8.4501 0.049 19.448
-8.1423 0.049 19.428667
-7.8345 0.049 19.409334
-7.5267 0.049 19.39
-7.2188997 0.049 19.370667
-6.9110994 0.049 19.351334
-6.6032996 0.049 19.332
-6.2955 0.049 19.312666
-5.9876995 0.049 19.293333
-5.6798997 0.049 19.274
-5.3721 0.049 19.254667
-5.0642996 0.049 19.235332
-4.7565 0.049 19.216
-4.7566333 0.66380006 19.2152
-4.7567663 1.2786001 19.2144
-4.7569 1.8934001 19.2136
-4.7570333 2.5082002 19.2128
-4.7571664 3.1230001 19.212
-4.7573 3.7378001 19.2112
-4.7574334 4.3526 19.2104
-4.7575665 4.9674 19.2096
-4.7577 5.5822 19.2088
-4.7578335 6.197 19.208
-4.7579665 6.8118 19.207201
-4.7581 7.4266 19.2064
-4.7582335 8.0414 19.2056
-4.7583666 8.6562 19.2048
-4.7585 9.271 19.204
-5.0663 9.270933 19.2234
-5.3741 9.270866 19.2428
-5.6819 9.2708 19.262201
-5.9897003 9.270734 19.2816
-6.2975 9.270667 19.301
-6.6053 9.2706 19.3204
-6.9131002 9.270534 19.3398
-7.2209 9.270467 19.359201
-7.5287 9.2704 19.378601
-7.8365 9.270333 19.398
-8.1443 9.270267 19.4174
-8.4521 9.270201 19.4368
-8.759899 9.270134 19.456202
-9.067699 9.270067 19.475601
-9.3755 9.27 19.495
-9.3755 9.27 19.495
-9.3755 9.27 19.495
-9.3755 9.27 19.495
-9.3755 9.27 19.495
-9.3755 9.27 19.495
-9.3755 9.27 19.495
-9.3755 9.27 19.495
-9.3755 9.27 19.495
-9.3755 9.27 19.495
-9.3755 9.27 19.495
-9.3755 9.27 19.495
-9.3755 9.27 19.495
-9.3755 9.27 19.495
-9.3755 9.27 19.495
-13.9205 9.269 18.628
-13.9185 0.047 18.639
-9.3735 0.049 19.506
-9.3755 9.27 19.495
-13.9205 9.269 18.628
-13.920366 8.6542 18.628733
-13.920233 8.0394 18.629467
-13.9201 7.4246 18.6302
-13.919967 6.8098 18.630934
-13.919833 6.1949997 18.631666
-13.9197 5.5802 18.6324
-13.919566 4.9653997 18.633133
-13.919434 4.3506 18.633867
-13.9193 3.7357998 18.6346
-13.919167 3.1209998 18.635334
-13.919033 2.5061998 18.636066
-13.9189 1.8913999 18.6368
-13.918767 1.2765999 18.637533
-13.918633 0.66179943 18.638268
-13.9185 0.047 18.639
-13.6154995 0.04713333 18.6968
-13.3125 0.047266666 18.7546
-13.0095 0.047399998 18.8124
-12.7065 0.047533333 18.8702
-12.4035 0.047666665 18.928
-12.1005 0.047799997 18.9858
-11.7975 0.047933333 19.0436
-11.494499 0.048066664 19.1014
-11.1915 0.0482 19.1592
-10.8885 0.048333332 19.217001
-10.5855 0.048466664 19.274801
-10.282499 0.0486 19.3326
-9.9795 0.04873333 19.3904
-9.6765 0.048866667 19.4482
-9.3735 0.049 19.506
-9.373633 0.6637334 19.505268
-9.373767 1.2784668 19.504534
-9.373899 1.8932002 19.503801
-9.374033 2.5079336 19.503067
-9.3741665 3.122667 19.502335
-9.3743 3.7374003 19.5016
-9.3744335 4.3521333 19.500868
-9.374566 4.966867 19.500134
-9.3747 5.5816 19.499401
-9.374833 6.196334 19.498667
-9.374967 6.811067 19.497934
-9.3751 7.4258003 19.4972
-9.375233 8.040534 19.496468
-9.375366 8.655267 19.495733
-9.3755 9.27 19.495
-9.6785 9.269934 19.4372
-9.9815 9.269867 19.3794
-10.2845 9.2698 19.3216
-10.5875 9.269733 19.263802
-10.8905 9.269667 19.206001
-11.1935 9.2696 19.148201
-11.4965 9.269533 19.0904
-11.7994995 9.269467 19.0326
-12.1025 9.269401 18.9748
-12.4055 9.269334 18.917
-12.7085 9.269267 18.8592
-13.011499 9.2692 18.801401
-13.3145 9.269134 18.7436
-13.6175 9.269067 18.6858
-13.9205 9.269 18.628
-13.9205 9.269 18.628
-13.9205 9.269 18.628
-13.9205 9.269 18.628
-13.9205 9.269 18.628
-13.9205 9.269 18.628
-13.9205 9.269 18.628
-13.9205 9.269 18.628
-13.9205 9.269 18.628
-13.9205 9.269 18.628
-13.9205 9.269 18.628
-13.9205 9.269 18.628
-13.9205 9.269 18.628
-13.9205 9.269 18.628
-13.9205 9.269 18.628
-18.1055 9.265 16.658
-18.1045 0.044 16.669
-13.9185 0.047 18.639
-13.9205 9.269 18.628
-18.1055 9.265 16.658
-18.105433 8.650267 16.658733
-18.105366 8.035534 16.659468
-18.105299 7.4208 16.6602
-18.105232 6.8060665 16.660934
-18.105165 6.1913333 16.661667
-18.105099 5.5766 16.662401
-18.105032 4.961867 16.663134
-18.104967 4.347133 16.663868
-18.1049 3.7324 16.6646
-18.104834 3.1176662 16.665335
-18.104767 2.502933 16.666067
-18.1047 1.8881998 16.666801
-18.104633 1.2734666 16.667534
-18.104567 0.65873337 16.668268
-18.1045 0.044 16.669
-17.825434 0.0442 16.800333
-17.546366 0.0444 16.931667
-17.2673 0.0446 17.063
-16.988234 0.0448 17.194334
-16.709167 0.044999998 17.325666
-16.4301 0.045199998 17.457
-16.151033 0.045399997 17.588333
-15.871966 0.0456 17.719667
-15.592899 0.0458 17.851
-15.313833 0.046 17.982334
-15.034766 0.0462 18.113667
-14.7557 0.0464 18.245
-14.476633 0.0466 18.376333
-14.197567 0.0468 18.507668
-13.9185 0.047 18.639
-13.918633 0.6618 18.638268
-13.918767 1.2766001 18.637533
-13.9189 1.8914001 18.6368
-13.919033 2.5062 18.636066
-13.919167 3.121 18.635334
-13.9193 3.7358 18.6346
-13.919434 4.3506002 18.633867
-13.919566 4.9654 18.633133
-13.9197 5.5802 18.6324
-13.919833 6.195 18.631666
-13.919967 6.8098 18.630934
-13.9201 7.4246 18.6302
-13.920233 8.0394 18.629467
-13.920366 8.654201 18.628733
-13.9205 9.269 18.628
-14.1995 9.268733 18.496668
-14.478499 9.268467 18.365334
-14.7575 9.2682 18.234001
-15.0365 9.267934 18.102667
-15.315499 9.267667 17.971334
-15.5945 9.2674 17.84
-15.8735 9.267134 17.708668
-16.1525 9.266867 17.577333
-16.4315 9.266601 17.446001
-16.710499 9.266334 17.314667
-16.9895 9.266067 17.183334
-17.2685 9.2658 17.052
-17.547499 9.265533 16.920668
-17.8265 9.265267 16.789333
-18.1055 9.265 16.658
-18.1055 9.265 16.658
-18.1055 9.265 16.658
-18.1055 9.265 16.658
-18.1055 9.265 16.658
-18.1055 9.265 16.658
-18.1055 9.265 16.658
-18.1055 9.265 16.658
-18.1055 9.265 16.658
-18.1055 9.265 16.658
-18.1055 9.265 16.658
-18.1055 9.265 16.658
-18.1055 9.265 16.658
-18.1055 9.265 16.658
-18.1055 9.265 16.658
-21.6705 9.261 13.709
-21.6685 0.039 13.72
-18.1045 0.044 16.669
-18.1055 9.265 16.658
-21.6705 9.261 13.709
-21.670366 8.646199 13.709733
-21.670233 8.0314 13.710466
-21.6701 7.4165998 13.7112
-21.669968 6.8018 13.711933
-21.669834 6.1869993 13.7126665
-21.6697 5.5722 13.7134
-21.669567 4.9573994 13.714133
-21.669434 4.3425994 13.714867
-21.6693 3.7277994 13.7156
-21.669167 3.1129994 13.716333
-21.669033 2.4981995 13.717067
-21.668901 1.8833995 13.7178
-21.668768 1.2685995 13.7185335
-21.668634 0.65379906 13.719267
-21.6685 0.039 13.72
-21.4309 0.039333332 13.9166
-21.1933 0.039666668 14.1132
-20.9557 0.04 14.3098
-20.718102 0.040333334 14.5064
-20.480501 0.040666666 14.703
-20.2429 0.041 14.8996
-20.0053 0.041333333 15.096201
-19.7677 0.041666668 15.292801
-19.5301 0.042 15.489401
-19.2925 0.042333335 15.686001
-19.0549 0.042666666 15.882601
-18.8173 0.043 16.0792
-18.5797 0.043333333 16.2758
-18.3421 0.04366667 16.4724
-18.1045 0.044 16.669
-18.104567 0.65873337 16.668268
-18.104633 1.2734668 16.667534
-18.1047 1.8882002 16.666801
-18.104767 2.5029335 16.666067
-18.104834 3.117667 16.665335
-18.1049 3.7324002 16.6646
-18.104967 4.3471336 16.663868
-18.105032 4.9618673 16.663134
-18.105099 5.5766006 16.662401
-18.105165 6.1913342 16.661667
-18.105232 6.8060675 16.660934
-18.105299 7.4208007 16.6602
-18.105366 8.035534 16.659468
-18.105433 8.650267 16.658733
-18.1055 9.265 16.658
-18.343166 9.264733 16.461401
-18.580833 9.264467 16.264801
-18.818499 9.2642 16.068201
-19.056166 9.263933 15.8716
-19.293833 9.263667 15.675
-19.5315 9.2634 15.4784
-19.769167 9.263133 15.2818
-20.006832 9.262867 15.0852
-20.2445 9.2626 14.8886
-20.482166 9.262333 14.692
-20.719833 9.262067 14.495399
-20.9575 9.2618 14.2987995
-21.195166 9.261533 14.1022
-21.432833 9.261267 13.9056
-21.6705 9.261 13.709
-21.6705 9.261 13.709
-21.6705 9.261 13.709
-21.6705 9.261 13.709
-21.6705 9.261 13.709
-21.6705 9.261 13.709
-21.6705 9.261 13.709
-21.6705 9.261 13.709
-21.6705 9.261 13.709
-21.6705 9.261 13.709
-21.6705 9.261 13.709
-21.6705 9.261 13.709
-21.6705 9.261 13.709
-21.6705 9.261 13.709
-21.6705 9.261 13.709
-24.3895 9.256 9.966
-24.3885 0.034 9.978
-21.6685 0.039 13.72
-21.6705 9.261 13.709
-24.3895 9.256 9.966
-24.389433 8.641199 9.9668
-24.389366 8.0264 9.9676
-24.3893 7.4115996 9.9684
-24.389233 6.7967997 9.969199
-24.389166 6.1819997 9.969999
-24.3891 5.5671997 9.970799
-24.389032 4.9523997 9.9716
-24.388968 4.3375998 9.9724
-24.3889 3.7227998 9.9732
-24.388834 3.1079998 9.974
-24.388767 2.4931998 9.9748
-24.3887 1.8784003 9.975599
-24.388634 1.2636003 9.976399
-24.388567 0.6487999 9.9772
-24.3885 0.034 9.978
-24.207167 0.034333333 10.227467
-24.025833 0.03466667 10.4769335
-23.8445 0.035 10.726399
-23.663166 0.035333335 10.975866
-23.481834 0.035666667 11.225333
-23.3005 0.036000002 11.4748
-23.119167 0.036333334 11.724267
-22.937834 0.03666667 11.973734
-22.7565 0.037 12.2232
-22.575167 0.037333336 12.472667
-22.393833 0.037666667 12.722134
-22.212502 0.038000003 12.971601
-22.031168 0.038333334 13.221067
-21.849834 0.038666666 13.470533
-21.6685 0.039 13.72
-21.668634 0.6538 13.719267
-21.668768 1.2686001 13.7185335
-21.668901 1.8834001 13.7178
-21.669033 2.4982002 13.717067
-21.669167 3.1130002 13.716333
-21.6693 3.7278001 13.7156
-21.669434 4.3426003 13.714867
-21.669567 4.9574003 13.714133
-21.6697 5.5722003 13.7134
-21.669834 6.1870003 13.7126665
-21.669968 6.8018003 13.711933
-21.6701 7.4166 13.7112
-21.670233 8.0314 13.710466
-21.670366 8.6462 13.709733
-21.6705 9.261 13.709
-21.851767 9.260666 13.459466
-22.033033 9.260333 13.209933
-22.2143 9.259999 12.9604
-22.395567 9.259666 12.710866
-22.576834 9.259333 12.461333
-22.7581 9.259 12.2118
-22.939367 9.258666 11.962266
-23.120632 9.258333 11.712732
-23.301899 9.257999 11.4632
-23.483166 9.257667 11.213666
-23.664433 9.257333 10.964132
-23.8457 9.257 10.7146
-24.026966 9.256666 10.465066
-24.208233 9.256333 10.215533
-24.3895 9.256 9.966
-24.3895 9.256 9.966
-24.3895 9.256 9.966
-24.3895 9.256 9.966
-24.3895 9.256 9.966
-24.3895 9.256 9.966
-24.3895 9.256 9.966
-24.3895 9.256 9.966
-24.3895 9.256 9.966
-24.3895 9.256 9.966
-24.3895 9.256 9.966
-24.3895 9.256 9.966
-24.3895 9.256 9.966
-24.3895 9.256 9.966
-24.3895 9.256 9.966
-26.0925 9.251 5.665
-26.0915 0.029 5.676
-24.3885 0.034 9.978
-24.3895 9.256 9.966
-26.0925 9.251 5.665
-26.092434 8.6362 5.6657333
-26.092367 8.0214 5.6664667
-26.0923 7.4066005 5.6672
-26.092234 6.7918005 5.6679335
-26.092167 6.177 5.668667
-26.0921 5.5622005 5.6694
-26.092033 4.9474 5.6701336
-26.091967 4.3326 5.6708665
-26.0919 3.7178001 5.6716
-26.091833 3.1030002 5.6723332
-26.091766 2.4882002 5.6730666
-26.0917 1.8734002 5.6738
-26.091633 1.2586002 5.6745334
-26.091566 0.6437998 5.6752667
-26.0915 0.029 5.676
-25.977966 0.029333333 5.9628
-25.864433 0.029666666 6.2496
-25.7509 0.03 6.5364
-25.637365 0.030333333 6.8232
-25.523832 0.030666666 7.11
-25.4103 0.031 7.3968
-25.296766 0.031333335 7.6836
-25.183233 0.031666666 7.9704
-25.0697 0.032 8.2572
-24.956167 0.032333333 8.544
-24.842632 0.03266667 8.8308
-24.7291 0.033 9.1175995
-24.615566 0.033333335 9.4044
-24.502033 0.03366667 9.6912
-24.3885 0.034 9.978
-24.388567 0.64879996 9.9772
-24.388634 1.2636 9.976399
-24.3887 1.8783998 9.975599
-24.388767 2.4931998 9.9748
-24.388834 3.1079998 9.974
-24.3889 3.7227995 9.9732
-24.388968 4.3375998 9.9724
-24.389032 4.9523997 9.9716
-24.3891 5.5671997 9.970799
-24.389166 6.1819997 9.969999
-24.389233 6.7967997 9.969199
-24.3893 7.411599 9.9684
-24.389366 8.0264 9.9676
-24.389433 8.6412 9.9668
-24.3895 9.256 9.966
-24.503033 9.255667 9.679266
-24.616566 9.255333 9.392533
-24.7301 9.255 9.1058
-24.843634 9.254666 8.819066
-24.957167 9.2543335 8.532333
-25.0707 9.254 8.2456
-25.184233 9.253667 7.958866
-25.297768 9.253333 7.672133
-25.4113 9.253 7.3854
-25.524834 9.252666 7.098666
-25.638367 9.252334 6.811933
-25.7519 9.252 6.5252
-25.865435 9.251667 6.2384663
-25.978968 9.251333 5.951733
-26.0925 9.251 5.665
-26.0925 9.251 5.665
-26.0925 9.251 5.665
-26.0925 9.251 5.665
-26.0925 9.251 5.665
-26.0925 9.251 5.665
-26.0925 9.251 5.665
-26.0925 9.251 5.665
-26.0925 9.251 5.665
-26.0925 9.251 5.665
-26.0925 9.251 5.665
-26.0925 9.251 5.665
-26.0925 9.251 5.665
-26.0925 9.251 5.665
-26.0925 9.251 5.665
-26.6725 9.245 1.074
-26.6715 0.023 1.085
-26.0915 0.029 5.676
-26.0925 9.251 5.665
-26.6725 9.245 1.074
-26.672434 8.630199 1.0747334
-26.672367 8.0154 1.0754666
-26.6723 7.4006 1.0762
-26.672234 6.7858 1.0769334
-26.672167 6.1709995 1.0776666
-26.6721 5.5562 1.0784
-26.672033 4.9413996 1.0791334
-26.671967 4.3265996 1.0798666
-26.6719 3.7117996 1.0806
-26.671833 3.0969996 1.0813334
-26.671766 2.4821997 1.0820667
-26.6717 1.8673997 1.0828
-26.671633 1.2525997 1.0835334
-26.671566 0.63779926 1.0842667
-26.6715 0.023 1.085
-26.632833 0.0234 1.3910668
-26.594166 0.0238 1.6971334
-26.5555 0.0242 2.0032
-26.516832 0.0246 2.3092668
-26.478167 0.025 2.6153336
-26.439499 0.0254 2.9214
-26.400833 0.025799999 3.2274668
-26.362165 0.0262 3.5335336
-26.3235 0.0266 3.8396
-26.284832 0.026999999 4.145667
-26.246166 0.0274 4.4517336
-26.207499 0.0278 4.7578
-26.168833 0.028199999 5.0638666
-26.130165 0.0286 5.3699336
-26.0915 0.029 5.676
-26.091566 0.6438 5.6752667
-26.091633 1.2586001 5.6745334
-26.0917 1.8734001 5.6738
-26.091766 2.4882002 5.6730666
-26.091833 3.1030002 5.6723332
-26.0919 3.7178001 5.6716
-26.091967 4.3326 5.6708665
-26.092033 4.9474 5.6701336
-26.0921 5.5622 5.6694
-26.092167 6.177 5.668667
-26.092234 6.7918 5.6679335
-26.0923 7.4066 5.6672
-26.092367 8.0214 5.6664667
-26.092434 8.636201 5.6657333
-26.0925 9.251 5.665
-26.131166 9.250601 5.3589334
-26.169834 9.2502 5.0528665
-26.2085 9.249801 4.7468
-26.247168 9.2494 4.440733
-26.285833 9.249001 4.1346664
-26.324501 9.2486 3.8286
-26.363167 9.2482 3.5225332
-26.401834 9.2478 3.2164664
-26.4405 9.2474 2.9104
-26.479168 9.247 2.6043332
-26.517834 9.2466 2.2982664
-26.556501 9.2462 1.9921999
-26.595167 9.2458 1.6861331
-26.633835 9.245399 1.3800664
-26.6725 9.245 1.074
-26.6725 9.245 1.074
-26.6725 9.245 1.074
-26.6725 9.245 1.074
-26.6725 9.245 1.074
-26.6725 9.245 1.074
-26.6725 9.245 1.074
-26.6725 9.245 1.074
-26.6725 9.245 1.074
-26.6725 9.245 1.074
-26.6725 9.245 1.074
-26.6725 9.245 1.074
-26.6725 9.245 1.074
-26.6725 9.245 1.074
-26.6725 9.245 1.074
-26.0925 9.239 -3.516
-26.0915 0.018 -3.505
-26.6715 0.023 1.085
-26.6725 9.245 1.074
-26.0925 9.239 -3.516
-26.092434 8.624267 -3.5152667
-26.092367 8.009534 -3.5145333
-26.0923 7.3948 -3.5138001
-26.092234 6.7800665 -3.5130668
-26.092167 6.1653333 -3.5123334
-26.0921 5.5506 -3.5116
-26.092033 4.935867 -3.5108666
-26.091967 4.321133 -3.5101335
-26.0919 3.7064 -3.5094001
-26.091833 3.0916662 -3.5086668
-26.091766 2.476933 -3.5079334
-26.0917 1.8621998 -3.5072
-26.091633 1.2474666 -3.5064669
-26.091566 0.63273335 -3.5057335
-26.0915 0.018 -3.505
-26.130165 0.018333333 -3.1990001
-26.168833 0.018666666 -2.8930001
-26.207499 0.019 -2.5870001
-26.246166 0.019333333 -2.2810001
-26.284832 0.019666666 -1.975
-26.3235 0.02 -1.669
-26.362165 0.020333333 -1.3629999
-26.400833 0.020666666 -1.0569999
-26.439499 0.021 -0.7509999
-26.478167 0.021333333 -0.44499993
-26.516832 0.021666666 -0.13899994
-26.5555 0.022 0.16700006
-26.594166 0.022333333 0.47300005
-26.632833 0.022666667 0.7790003
-26.6715 0.023 1.085
-26.671566 0.63780004 1.0842667
-26.671633 1.2526001 1.0835334
-26.6717 1.8674 1.0828
-26.671766 2.4822001 1.0820667
-26.671833 3.0970001 1.0813334
-26.6719 3.7118 1.0806
-26.671967 4.3266 1.0798666
-26.672033 4.9414 1.0791334
-26.6721 5.5562 1.0784
-26.672167 6.171 1.0776666
-26.672234 6.7858 1.0769334
-26.6723 7.4006 1.0762
-26.672367 8.0154 1.0754666
-26.672434 8.6302 1.0747334
-26.6725 9.245 1.074
-26.633835 9.2446 0.768
-26.595167 9.2442 0.46199995
-26.556501 9.2438 0.15599996
-26.517834 9.2434 -0.1500001
-26.479168 9.243 -0.4560001
-26.4405 9.2426 -0.7620001
-26.401834 9.2422 -1.0680002
-26.363167 9.2418 -1.3740002
-26.324501 9.2414 -1.6800002
-26.285833 9.241 -1.9860002
-26.247168 9.240601 -2.2920003
-26.2085 9.2402 -2.598
-26.169834 9.2398 -2.9040003
-26.131166 9.2394 -3.2100005
-26.0925 9.239 -3.516
-26.0925 9.239 -3.516
-26.0925 9.239 -3.516
-26.0925 9.239 -3.516
-26.0925 9.239 -3.516
-26.0925 9.239 -3.516
-26.0925 9.239 -3.516
-26.0925 9.239 -3.516
-26.0925 9.239 -3.516
-26.0925 9.239 -3.516
-26.0925 9.239 -3.516
-26.0925 9.239 -3.516
-26.0925 9.239 -3.516
-26.0925 9.239 -3.516
-26.0925 9.239 -3.516
-24.3885 0.013 -7.806
-16.8315 0.019 -3.829
-15.6125 0.017 -5.479
-14.4125 0.016 -6.578
-12.9165 0.015 -7.555
-16.3835 0.005 -15.436
-13.9165 0.004 -16.467
-9.3725 0.004 -17.334
-4.7555 0.005 -17.043
-0.3555 0.008 -15.614
1.0695 0.009 -14.709
6.5515 0.0 -22.738
8.7705 0.001 -22.138
10.6515 0.002 -22.089
12.4005 0.002 -22.451
13.6535 0.001 -23.094
15.2105 0.0 -24.257
17.6985 0.003 -21.906
20.3985 0.008 -18.241
23.1225 0.014 -13.577
25.2365 0.022 -7.335
26.6725 0.031 -0.468
26.2905 0.039 6.19
24.8455 0.048 13.259
22.2235 0.055 19.804
19.1825 0.06 24.276
17.1375 0.058 22.785
14.5755 0.056 22.156
10.9445 0.056 22.017
8.7085 0.056 22.427
6.9905 0.056 23.166
2.1485 0.047 16.197
-0.3565 0.048 17.787
-4.7565 0.049 19.216
-9.3735 0.049 19.506
-13.9185 0.047 18.639
-18.1045 0.044 16.669
-21.6685 0.039 13.72
-24.3885 0.034 9.978
-26.0915 0.029 5.676
-26.6715 0.023 1.085
-26.0915 0.018 -3.505
-24.3885 0.013 -7.806
-23.8847 0.0134000005 -7.540867
-23.3809 0.0138 -7.2757335
-22.8771 0.0142 -7.0106
-22.3733 0.0146 -6.7454667
-21.8695 0.015000001 -6.4803333
-21.3657 0.0154 -6.2152
-20.8619 0.0158 -5.9500666
-20.358099 0.0162 -5.6849337
-19.8543 0.0166 -5.4198
-19.350498 0.017 -5.154667
-18.846699 0.0174 -4.889533
-18.3429 0.0178 -4.6244
-17.8391 0.018199999 -4.3592668
-17.335299 0.0186 -4.0941334
-16.8315 0.019 -3.829
-16.750233 0.018866666 -3.9390001
-16.668966 0.018733334 -4.049
-16.5877 0.0186 -4.159
-16.506433 0.018466666 -4.269
-16.425167 0.018333333 -4.379
-16.343899 0.0182 -4.489
-16.262632 0.018066667 -4.599
-16.181366 0.017933333 -4.709
-16.1001 0.0178 -4.8190002
-16.018833 0.017666668 -4.929
-15.937567 0.017533334 -5.039
-15.8563 0.0174 -5.149
-15.775033 0.017266667 -5.259
-15.693767 0.017133335 -5.369
-15.6125 0.017 -5.479
-15.5325 0.016933335 -5.5522666
-15.4525 0.016866667 -5.6255336
-15.3725 0.016800001 -5.6988
-15.2925005 0.016733333 -5.7720666
-15.212501 0.016666668 -5.8453336
-15.132501 0.016600002 -5.9186
-15.0525 0.016533334 -5.9918666
-14.9725 0.016466668 -6.0651336
-14.8925 0.0164 -6.1384
-14.8125 0.016333334 -6.2116666
-14.7325 0.016266668 -6.2849336
-14.6525 0.0162 -6.3582
-14.5725 0.016133334 -6.4314666
-14.4925 0.016066667 -6.5047336
-14.4125 0.016 -6.578
-14.312767 0.015933335 -6.643133
-14.213034 0.015866667 -6.7082667
-14.1133 0.015800001 -6.7734
-14.013567 0.015733333 -6.8385334
-13.913834 0.015666667 -6.9036665
-13.8141 0.0156000005 -6.9688
-13.714367 0.015533334 -7.033933
-13.614634 0.015466667 -7.0990667
-13.5149 0.0154 -7.1642
-13.415167 0.015333333 -7.2293334
-13.3154335 0.015266666 -7.2944665
-13.2157 0.0152 -7.3596
-13.115967 0.015133333 -7.424733
-13.016233 0.0150666665 -7.4898663
-12.9165 0.015 -7.555
-13.147634 0.014333333 -8.0803995
-13.378767 0.013666666 -8.6058
-13.6098995 0.012999999 -9.1312
-13.841033 0.0123333335 -9.6566
-14.072166 0.011666667 -10.182
-14.3033 0.011 -10.707399
-14.534433 0.010333333 -11.2328
-14.765566 0.009666666 -11.7582
-14.996699 0.009 -12.2836
-15.227833 0.008333333 -12.809
-15.458966 0.0076666665 -13.3344
-15.6901 0.0069999993 -13.8598
-15.921232 0.0063333334 -14.3852005
-16.152367 0.0056666667 -14.9106
-16.3835 0.005 -15.436
-16.219032 0.004933333 -15.504733
-16.054565 0.0048666666 -15.573466
-15.8901 0.0047999998 -15.6421995
-15.725633 0.0047333334 -15.710933
-15.561166 0.0046666665 -15.779666
-15.3967 0.0046 -15.848399
-15.232233 0.0045333332 -15.917132
-15.067766 0.004466667 -15.985867
-14.903299 0.0044 -16.0546
-14.738833 0.0043333336 -16.123333
-14.574367 0.0042666667 -16.192066
-14.4099 0.0042000003 -16.2608
-14.245434 0.0041333335 -16.329533
-14.080967 0.0040666666 -16.398266
-13.9165 0.004 -16.467
-13.613566 0.004 -16.5248
-13.310634 0.004 -16.5826
-13.0077 0.004 -16.6404
-12.704767 0.004 -16.698198
-12.401834 0.004 -16.755999
-12.0989 0.004 -16.813799
-11.795967 0.004 -16.8716
-11.493033 0.004 -16.9294
-11.1901 0.004 -16.9872
-10.887167 0.004 -17.045
-10.584233 0.004 -17.1028
-10.281301 0.004 -17.160599
-9.978367 0.004 -17.2184
-9.675434 0.004 -17.2762
-9.3725 0.004 -17.334
-9.0647 0.004066667 -17.3146
-8.756901 0.0041333335 -17.2952
-8.4491005 0.0042000003 -17.275799
-8.1413 0.0042666667 -17.2564
-7.8335 0.0043333336 -17.237
-7.5257 0.0044 -17.2176
-7.2179003 0.004466667 -17.1982
-6.9101 0.0045333332 -17.178799
-6.6022997 0.0046 -17.159399
-6.2945 0.0046666665 -17.14
-5.9867 0.0047333334 -17.1206
-5.6789 0.0047999998 -17.1012
-5.3711 0.0048666666 -17.081799
-5.0632997 0.004933333 -17.062399
-4.7555 0.005 -17.043
-4.4621663 0.0052 -16.947733
-4.1688333 0.0054 -16.852467
-3.8755 0.0056 -16.7572
-3.5821667 0.0058 -16.661932
-3.2888331 0.006 -16.566666
-2.9955 0.0062 -16.4714
-2.7021666 0.0064000003 -16.376133
-2.4088333 0.0066 -16.280867
-2.1155 0.0068 -16.1856
-1.8221667 0.007 -16.090334
-1.5288334 0.0072000003 -15.995067
-1.2355001 0.0074000005 -15.8998
-0.9421668 0.0076 -15.804533
-0.6488333 0.0078000003 -15.709267
-0.3555 0.008 -15.614
-0.2605 0.008066667 -15.553667
-0.16550002 0.008133333 -15.493334
-0.070500016 0.0082 -15.433001
0.024499983 0.008266667 -15.372666
0.11949998 0.008333334 -15.312333
0.21449998 0.0084 -15.252
0.30949995 0.008466667 -15.191667
0.40449998 0.008533333 -15.131333
0.4995 0.0086 -15.071
0.59449995 0.008666666 -15.010667
0.6895 0.008733333 -14.950333
0.7845 0.0088 -14.889999
0.87950003 0.008866667 -14.829666
0.97449994 0.008933333 -14.769333
1.0695 0.009 -14.709
1.4349667 0.0084 -15.2442665
1.8004334 0.0078 -15.779533
2.1659 0.0072 -16.3148
2.5313668 0.0065999995 -16.850067
2.8968334 0.0059999996 -17.385334
3.2623 0.0053999997 -17.9206
3.6277666 0.0047999998 -18.455868
3.9932334 0.0041999994 -18.991135
4.3587 0.0035999995 -19.526402
4.724167 0.0029999996 -20.061668
5.0896335 0.0023999996 -20.596933
5.4551 0.0017999997 -21.1322
5.8205667 0.0011999998 -21.667467
6.1860332 5.999999E-4 -22.202734
6.5515 0.0 -22.738
6.6994333 6.6666675E-5 -22.698
6.8473663 1.3333335E-4 -22.658
6.9953 2.0000001E-4 -22.618
7.1432333 2.666667E-4 -22.578001
7.291167 3.3333336E-4 -22.538
7.4391 4.0000002E-4 -22.498001
7.5870333 4.6666668E-4 -22.458
7.7349668 5.333334E-4 -22.418001
7.8829 6.0E-4 -22.378
8.030833 6.666667E-4 -22.338001
8.178767 7.333334E-4 -22.298
8.3267 8.0000004E-4 -22.258001
8.474633 8.666667E-4 -22.218
8.622567 9.3333336E-4 -22.178001
8.7705 0.001 -22.138
8.8959 0.0010666667 -22.134733
9.0213 0.0011333334 -22.131468
9.1467 0.0012 -22.1282
9.2721 0.0012666667 -22.124933
9.3975 0.0013333334 -22.121668
9.5229 0.0014000001 -22.1184
9.6483 0.0014666667 -22.115133
9.7737 0.0015333334 -22.111868
9.8991 0.0016000001 -22.1086
10.0245 0.0016666667 -22.105333
10.1498995 0.0017333335 -22.102068
10.2753 0.0018000001 -22.0988
10.4007 0.0018666668 -22.095533
10.5261 0.0019333335 -22.092268
10.6515 0.002 -22.089
10.7681 0.002 -22.113134
10.8847 0.002 -22.137268
11.0013 0.002 -22.1614
11.1179 0.002 -22.185534
11.2345 0.002 -22.209667
11.3511 0.002 -22.2338
11.4677 0.002 -22.257935
11.5843 0.002 -22.282066
11.7009 0.002 -22.3062
11.8175 0.002 -22.330334
11.9341 0.002 -22.354467
12.0507 0.002 -22.378601
12.1673 0.002 -22.402733
12.2839 0.002 -22.426867
12.4005 0.002 -22.451
12.484034 0.0019333335 -22.493866
12.567567 0.0018666667 -22.536734
12.6511 0.0018000001 -22.5796
12.734633 0.0017333333 -22.622467
12.818167 0.0016666667 -22.665333
12.9017 0.0016000001 -22.7082
12.985233 0.0015333334 -22.751066
13.068767 0.0014666667 -22.793934
13.1523 0.0014000001 -22.8368
13.235833 0.0013333333 -22.879667
13.319366 0.0012666667 -22.922533
13.4029 0.0012 -22.9654
13.486433 0.0011333334 -23.008266
13.569966 0.0010666668 -23.051134
13.6535 0.001 -23.094
13.757299 9.3333336E-4 -23.171534
13.861099 8.6666667E-4 -23.249067
13.9649 8.0000004E-4 -23.3266
14.0687 7.3333335E-4 -23.404133
14.1725 6.6666666E-4 -23.481667
14.276299 6.0E-4 -23.5592
14.380099 5.333334E-4 -23.636734
14.4839 4.6666665E-4 -23.714266
14.5877 4.0000002E-4 -23.7918
14.6915 3.3333333E-4 -23.869333
14.7953 2.6666664E-4 -23.946867
14.899099 2.0000001E-4 -24.0244
15.0029 1.3333332E-4 -24.101933
15.1067 6.666669E-5 -24.179466
15.2105 0.0 -24.257
15.376367 2.0000001E-4 -24.100267
15.542233 4.0000002E-4 -23.943533
15.708099 6.0E-4 -23.7868
15.873966 8.0000004E-4 -23.630066
16.039833 0.001 -23.473333
16.2057 0.0012 -23.3166
16.371567 0.0014000001 -23.159866
16.537434 0.0016000001 -23.003134
16.7033 0.0018000001 -22.8464
16.869167 0.002 -22.689667
17.035032 0.0022 -22.532934
17.2009 0.0024 -22.3762
17.366766 0.0026 -22.219467
17.532633 0.0028000001 -22.062733
17.6985 0.003 -21.906
17.8785 0.0033333334 -21.661667
18.0585 0.0036666668 -21.417334
18.2385 0.004 -21.173
18.418499 0.0043333336 -20.928667
18.5985 0.004666667 -20.684334
18.7785 0.005 -20.44
18.9585 0.0053333333 -20.195667
19.1385 0.005666667 -19.951332
19.3185 0.006 -19.706999
19.4985 0.0063333334 -19.462666
19.678501 0.006666667 -19.218332
19.8585 0.007 -18.973999
20.0385 0.0073333336 -18.729666
20.2185 0.007666667 -18.485332
20.3985 0.008 -18.241
20.580101 0.008400001 -17.930065
20.7617 0.0088 -17.619133
20.9433 0.0092 -17.308199
21.1249 0.0096 -16.997267
21.3065 0.010000001 -16.686333
21.4881 0.010400001 -16.375399
21.6697 0.0108 -16.064466
21.8513 0.0112000005 -15.753532
22.0329 0.011600001 -15.442599
22.2145 0.012 -15.131666
22.3961 0.0124 -14.820733
22.5777 0.012800001 -14.5098
22.7593 0.0132 -14.198866
22.940899 0.013600001 -13.887933
23.1225 0.014 -13.577
23.263433 0.0145333335 -13.160867
23.404366 0.015066667 -12.744733
23.5453 0.0156000005 -12.3286
23.686234 0.016133334 -11.912466
23.827166 0.016666668 -11.496333
23.9681 0.0172 -11.0802
24.109034 0.017733334 -10.664066
24.249966 0.018266667 -10.247932
24.3909 0.0188 -9.8317995
24.531834 0.019333333 -9.415667
24.672766 0.019866668 -8.999533
24.8137 0.0204 -8.5834
24.954634 0.020933334 -8.167267
25.095566 0.021466667 -7.7511334
25.2365 0.022 -7.335
25.332233 0.0226 -6.8772
25.427967 0.0232 -6.4194
25.5237 0.0238 -5.9616
25.619432 0.0244 -5.5038
25.715166 0.025 -5.046
25.8109 0.0256 -4.5881996
25.906633 0.0262 -4.1303997
26.002367 0.0268 -3.6725998
26.0981 0.0274 -3.2148
26.193834 0.028 -2.757
26.289568 0.0286 -2.2992
26.3853 0.029199999 -1.8413997
26.481033 0.0298 -1.3835998
26.576767 0.0304 -0.92579985
26.6725 0.031 -0.468
26.647034 0.031533334 -0.024133295
26.621567 0.032066666 0.4197334
26.5961 0.0326 0.8636001
26.570635 0.03313333 1.3074667
26.545168 0.033666667 1.7513335
26.519701 0.0342 2.1952002
26.494234 0.034733333 2.6390667
26.468767 0.035266668 3.0829337
26.4433 0.035800003 3.5268002
26.417833 0.036333334 3.970667
26.392366 0.03686667 4.4145336
26.366901 0.0374 4.8584003
26.341434 0.037933335 5.3022666
26.315968 0.038466666 5.7461333
26.2905 0.039 6.19
26.194168 0.0396 6.661267
26.097834 0.040200002 7.1325336
26.001501 0.0408 7.6038
25.905167 0.0414 8.075067
25.808834 0.042 8.546333
25.712502 0.042600002 9.0176
25.616167 0.0432 9.488867
25.519835 0.0438 9.960134
25.4235 0.0444 10.4314
25.327168 0.045 10.902666
25.230835 0.0456 11.373934
25.1345 0.0462 11.8452
25.038168 0.046800002 12.316467
24.941833 0.0474 12.787733
24.8455 0.048 13.259
24.6707 0.048466668 13.6953335
24.495901 0.048933335 14.131666
24.3211 0.0494 14.568
24.146301 0.04986667 15.0043335
23.9715 0.050333332 15.440667
23.7967 0.0508 15.877001
23.6219 0.051266667 16.313334
23.4471 0.051733334 16.749668
23.2723 0.0522 17.186
23.0975 0.052666668 17.622334
22.922699 0.053133335 18.058666
22.7479 0.0536 18.495
22.5731 0.054066665 18.931334
22.3983 0.054533333 19.367668
22.2235 0.055 19.804
22.020765 0.05533333 20.102135
21.818033 0.055666666 20.400267
21.6153 0.055999998 20.6984
21.412567 0.056333333 20.996534
21.209833 0.056666665 21.294666
21.0071 0.057 21.5928
20.804367 0.05733333 21.890934
20.601633 0.057666667 22.189066
20.398901 0.058 22.4872
20.196167 0.058333334 22.785334
19.993433 0.058666665 23.083466
19.7907 0.059 23.3816
19.587967 0.059333332 23.679733
19.385235 0.059666663 23.977865
19.1825 0.06 24.276
19.046167 0.059866667 24.1766
18.909834 0.05973333 24.0772
18.7735 0.0596 23.977798
18.637167 0.059466664 23.878399
18.500834 0.059333332 23.779
18.3645 0.0592 23.6796
18.228167 0.059066664 23.5802
18.091835 0.058933333 23.480799
17.955502 0.058799997 23.3814
17.819168 0.058666665 23.282
17.682835 0.058533333 23.1826
17.546501 0.058399998 23.0832
17.410168 0.058266666 22.983799
17.273834 0.05813333 22.8844
17.1375 0.058 22.785
16.966702 0.057866666 22.743067
16.7959 0.05773333 22.701134
16.625101 0.0576 22.6592
16.4543 0.057466667 22.617266
16.2835 0.05733333 22.575333
16.1127 0.0572 22.5334
15.9419 0.057066668 22.491467
15.7711 0.056933332 22.449533
15.6003 0.0568 22.4076
15.4295 0.05666667 22.365667
15.258699 0.056533333 22.323734
15.0879 0.0564 22.2818
14.9171 0.05626667 22.239866
14.7463 0.056133334 22.197933
14.5755 0.056 22.156
14.333433 0.056 22.146734
14.091366 0.056 22.137466
13.849299 0.056 22.1282
13.607233 0.056 22.118933
13.365167 0.056 22.109667
13.123099 0.056 22.1004
12.881033 0.056 22.091133
12.638967 0.056 22.081867
12.3969 0.056 22.0726
12.154833 0.056 22.063334
11.912766 0.056 22.054068
11.6707 0.056 22.0448
11.428633 0.056 22.035534
11.186566 0.056 22.026266
10.9445 0.056 22.017
10.795433 0.056 22.044334
10.646367 0.056 22.071667
10.4973 0.056 22.099
10.348233 0.056 22.126333
10.199166 0.056 22.153667
10.0501 0.056 22.181
9.901033 0.056 22.208334
9.751966 0.056 22.235666
9.6029 0.056 22.263
9.453834 0.056 22.290333
9.304767 0.056 22.317667
9.1557 0.056 22.345
9.006634 0.056 22.372334
8.857567 0.056 22.399666
8.7085 0.056 22.427
8.5939665 0.056 22.476267
8.479433 0.056 22.525534
8.3649 0.056 22.5748
8.250366 0.056 22.624067
8.135834 0.056 22.673334
8.0213 0.056 22.7226
7.9067664 0.056 22.771868
7.7922335 0.056 22.821133
7.6777 0.056 22.8704
7.5631666 0.056 22.919666
7.448633 0.056 22.968933
7.3341 0.056 23.0182
7.2195663 0.056 23.067467
7.1050334 0.056 23.116734
6.9905 0.056 23.166
6.6677 0.055400003 22.7014
6.3449 0.0548 22.236801
6.0221 0.0542 21.7722
5.6993 0.053600002 21.3076
5.3765 0.053 20.843
5.0537 0.0524 20.3784
4.7309 0.0518 19.913801
4.4081 0.0512 19.4492
4.0853 0.0506 18.9846
3.7624998 0.05 18.52
3.4397 0.049399998 18.0554
3.1169 0.0488 17.590801
2.7940998 0.0482 17.1262
2.4713001 0.047599997 16.6616
2.1485 0.047 16.197
1.9814999 0.047066666 16.303001
1.8145 0.04713333 16.409
1.6475 0.047199998 16.515001
1.4805 0.047266666 16.621
1.3134999 0.047333334 16.727001
1.1465 0.047399998 16.833
0.97950006 0.047466666 16.939001
0.8125 0.047533333 17.045
0.64549994 0.0476 17.151001
0.4785 0.047666665 17.257
0.31150007 0.047733333 17.363
0.14450002 0.0478 17.469
-0.022500038 0.04786667 17.575
-0.18949986 0.047933333 17.681
-0.3565 0.048 17.787
-0.6498333 0.04806667 17.882267
-0.9431666 0.048133332 17.977533
-1.2364999 0.0482 18.0728
-1.5298333 0.048266668 18.168068
-1.8231666 0.048333332 18.263334
-2.1165 0.0484 18.3586
-2.4098332 0.048466668 18.453867
-2.7031665 0.04853333 18.549133
-2.9964998 0.0486 18.6444
-3.289833 0.048666667 18.739666
-3.5831664 0.04873333 18.834934
-3.8764997 0.0488 18.9302
-4.169833 0.048866667 19.025467
-4.4631667 0.04893333 19.120733
-4.7565 0.049 19.216
-5.0642996 0.049 19.235332
-5.3721 0.049 19.254667
-5.6798997 0.049 19.274
-5.9877 0.049 19.293333
-6.2955 0.049 19.312666
-6.6033 0.049 19.332
-6.9111 0.049 19.351334
-7.2188997 0.049 19.370667
-7.5267 0.049 19.39
-7.8345 0.049 19.409334
-8.1423 0.049 19.428667
-8.4501 0.049 19.448
-8.7579 0.049 19.467333
-9.065701 0.049 19.486668
-9.3735 0.049 19.506
-9.6765 0.048866667 19.4482
-9.9795 0.04873333 19.3904
-10.2825 0.0486 19.3326
-10.5855 0.048466664 19.274801
-10.8885 0.048333332 19.217001
-11.1915 0.0482 19.1592
-11.4945 0.048066664 19.1014
-11.797501 0.047933333 19.0436
-12.1005 0.047799997 18.9858
-12.4035 0.047666665 18.928
-12.7065 0.047533333 18.8702
-13.0095005 0.047399998 18.8124
-13.3125 0.047266666 18.7546
-13.6154995 0.04713333 18.6968
-13.9185 0.047 18.639
-14.197567 0.0468 18.507668
-14.476633 0.0466 18.376333
-14.7557 0.0464 18.245
-15.034767 0.0462 18.113667
-15.313833 0.046 17.982334
-15.5929 0.0458 17.851
-15.871966 0.0456 17.719667
-16.151033 0.045399997 17.588333
-16.4301 0.045199998 17.457
-16.709167 0.044999998 17.325666
-16.988234 0.0448 17.194334
-17.2673 0.0446 17.063
-17.546366 0.0444 16.931667
-17.825434 0.0442 16.800333
-18.1045 0.044 16.669
-18.3421 0.04366667 16.4724
-18.5797 0.043333333 16.2758
-18.8173 0.043 16.0792
-19.054901 0.042666666 15.882601
-19.2925 0.042333335 15.686001
-19.5301 0.042 15.489401
-19.7677 0.041666668 15.292801
-20.0053 0.041333333 15.0962
-20.2429 0.041 14.8996
-20.480501 0.040666666 14.703
-20.718102 0.040333334 14.5064
-20.9557 0.04 14.3098
-21.1933 0.039666668 14.1132
-21.4309 0.039333336 13.9166
-21.6685 0.039 13.72
-21.849834 0.03866667 13.470533
-22.031168 0.038333334 13.221066
-22.212502 0.038000003 12.971601
-22.393833 0.037666667 12.722134
-22.575167 0.037333336 12.472667
-22.7565 0.037 12.2232
-22.937834 0.03666667 11.973733
-23.119167 0.036333334 11.724266
-23.3005 0.036000002 11.4748
-23.481834 0.035666667 11.225333
-23.663168 0.035333335 10.975866
-23.8445 0.035 10.726399
-24.025833 0.03466667 10.476933
-24.207167 0.034333333 10.227467
-24.3885 0.034 9.978
-24.502033 0.033666667 9.691199
-24.615566 0.033333335 9.4044
-24.7291 0.033 9.1175995
-24.842634 0.03266667 8.8308
-24.956167 0.032333333 8.544
-25.0697 0.032 8.2572
-25.183233 0.031666666 7.9704
-25.296766 0.031333335 7.6835995
-25.4103 0.031 7.3968
-25.523832 0.030666666 7.1099997
-25.637367 0.030333333 6.8232
-25.7509 0.03 6.5364
-25.864433 0.029666666 6.2496
-25.977966 0.029333333 5.9628
-26.0915 0.029 5.676
-26.130165 0.0286 5.3699336
-26.168833 0.028199999 5.0638666
-26.207499 0.0278 4.7578
-26.246166 0.0274 4.4517336
-26.284832 0.026999999 4.1456666
-26.3235 0.0266 3.8396
-26.362165 0.0262 3.5335333
-26.400833 0.025799999 3.2274666
-26.439499 0.0254 2.9214
-26.478167 0.024999999 2.6153333
